9.641871e+02 -4.068631e+02 1.975197e+03 
9.456944e+02 -3.224150e+02 2.025461e+03 
9.272017e+02 -2.379669e+02 2.075726e+03 
9.087090e+02 -1.535189e+02 2.125991e+03 
8.902163e+02 -6.907076e+01 2.176256e+03 
8.717237e+02 1.537733e+01 2.226520e+03 
8.532310e+02 9.982542e+01 2.276785e+03 
8.347383e+02 1.842735e+02 2.327050e+03 
8.162456e+02 2.687216e+02 2.377314e+03 
7.977530e+02 3.531697e+02 2.427579e+03 
7.792603e+02 4.376178e+02 2.477844e+03 
7.607676e+02 5.220659e+02 2.528108e+03 
8.659195e+02 -4.221149e+02 1.964667e+03 
8.474268e+02 -3.376668e+02 2.014932e+03 
8.289341e+02 -2.532187e+02 2.065197e+03 
8.104414e+02 -1.687706e+02 2.115462e+03 
7.919488e+02 -8.432249e+01 2.165726e+03 
7.734561e+02 1.255990e-01 2.215991e+03 
7.549634e+02 8.457369e+01 2.266256e+03 
7.364707e+02 1.690218e+02 2.316520e+03 
7.179781e+02 2.534699e+02 2.366785e+03 
6.994854e+02 3.379180e+02 2.417050e+03 
6.809927e+02 4.223661e+02 2.467314e+03 
6.625000e+02 5.068142e+02 2.517579e+03 
7.676519e+02 -4.373666e+02 1.954138e+03 
7.491592e+02 -3.529185e+02 2.004403e+03 
7.306665e+02 -2.684704e+02 2.054668e+03 
7.121738e+02 -1.840223e+02 2.104932e+03 
6.936812e+02 -9.957423e+01 2.155197e+03 
6.751885e+02 -1.512613e+01 2.205462e+03 
6.566958e+02 6.932196e+01 2.255726e+03 
6.382031e+02 1.537701e+02 2.305991e+03 
6.197105e+02 2.382181e+02 2.356256e+03 
6.012178e+02 3.226662e+02 2.406521e+03 
5.827251e+02 4.071143e+02 2.456785e+03 
5.642324e+02 4.915624e+02 2.507050e+03 
6.693843e+02 -4.526183e+02 1.943609e+03 
6.508916e+02 -3.681702e+02 1.993874e+03 
6.323989e+02 -2.837221e+02 2.044138e+03 
6.139063e+02 -1.992740e+02 2.094403e+03 
5.954136e+02 -1.148260e+02 2.144668e+03 
5.769209e+02 -3.037786e+01 2.194932e+03 
5.584282e+02 5.407023e+01 2.245197e+03 
5.399356e+02 1.385183e+02 2.295462e+03 
5.214429e+02 2.229664e+02 2.345727e+03 
5.029502e+02 3.074145e+02 2.395991e+03 
4.844575e+02 3.918626e+02 2.446256e+03 
4.659648e+02 4.763107e+02 2.496521e+03 
5.711167e+02 -4.678701e+02 1.933080e+03 
5.526240e+02 -3.834220e+02 1.983344e+03 
5.341313e+02 -2.989739e+02 2.033609e+03 
5.156387e+02 -2.145258e+02 2.083874e+03 
4.971460e+02 -1.300777e+02 2.134138e+03 
4.786533e+02 -4.562959e+01 2.184403e+03 
4.601606e+02 3.881850e+01 2.234668e+03 
4.416680e+02 1.232666e+02 2.284933e+03 
4.231753e+02 2.077147e+02 2.335197e+03 
4.046826e+02 2.921628e+02 2.385462e+03 
3.861899e+02 3.766109e+02 2.435727e+03 
3.676973e+02 4.610590e+02 2.485991e+03 
4.728491e+02 -4.831218e+02 1.922550e+03 
4.543564e+02 -3.986737e+02 1.972815e+03 
4.358638e+02 -3.142256e+02 2.023080e+03 
4.173711e+02 -2.297775e+02 2.073344e+03 
3.988784e+02 -1.453294e+02 2.123609e+03 
3.803857e+02 -6.088133e+01 2.173874e+03 
3.618931e+02 2.356677e+01 2.224139e+03 
3.434004e+02 1.080149e+02 2.274403e+03 
3.249077e+02 1.924630e+02 2.324668e+03 
3.064150e+02 2.769110e+02 2.374933e+03 
2.879223e+02 3.613591e+02 2.425197e+03 
2.694297e+02 4.458072e+02 2.475462e+03 
3.745815e+02 -4.983735e+02 1.912021e+03 
3.560888e+02 -4.139254e+02 1.962286e+03 
3.375962e+02 -3.294773e+02 2.012550e+03 
3.191035e+02 -2.450292e+02 2.062815e+03 
3.006108e+02 -1.605812e+02 2.113080e+03 
2.821181e+02 -7.613306e+01 2.163345e+03 
2.636255e+02 8.315035e+00 2.213609e+03 
2.451328e+02 9.276313e+01 2.263874e+03 
2.266401e+02 1.772112e+02 2.314139e+03 
2.081474e+02 2.616593e+02 2.364403e+03 
1.896548e+02 3.461074e+02 2.414668e+03 
1.711621e+02 4.305555e+02 2.464933e+03 
2.763139e+02 -5.136253e+02 1.901492e+03 
2.578213e+02 -4.291772e+02 1.951756e+03 
2.393286e+02 -3.447291e+02 2.002021e+03 
2.208359e+02 -2.602810e+02 2.052286e+03 
2.023432e+02 -1.758329e+02 2.102551e+03 
1.838506e+02 -9.138479e+01 2.152815e+03 
1.653579e+02 -6.936696e+00 2.203080e+03 
1.468652e+02 7.751140e+01 2.253345e+03 
1.283725e+02 1.619595e+02 2.303609e+03 
1.098798e+02 2.464076e+02 2.353874e+03 
9.138717e+01 3.308557e+02 2.404139e+03 
7.289449e+01 4.153038e+02 2.454404e+03 
1.780463e+02 -5.288770e+02 1.890962e+03 
1.595537e+02 -4.444289e+02 1.941227e+03 
1.410610e+02 -3.599808e+02 1.991492e+03 
1.225683e+02 -2.755327e+02 2.041757e+03 
1.040756e+02 -1.910846e+02 2.092021e+03 
8.558296e+01 -1.066365e+02 2.142286e+03 
6.709029e+01 -2.218843e+01 2.192551e+03 
4.859761e+01 6.225967e+01 2.242815e+03 
3.010493e+01 1.467078e+02 2.293080e+03 
1.161226e+01 2.311559e+02 2.343345e+03 
-6.880418e+00 3.156039e+02 2.393610e+03 
-2.537309e+01 4.000520e+02 2.443874e+03 
7.977876e+01 -5.441287e+02 1.880433e+03 
6.128608e+01 -4.596806e+02 1.930698e+03 
4.279340e+01 -3.752325e+02 1.980963e+03 
2.430073e+01 -2.907844e+02 2.031227e+03 
5.808051e+00 -2.063363e+02 2.081492e+03 
-1.268463e+01 -1.218883e+02 2.131757e+03 
-3.117730e+01 -3.744016e+01 2.182021e+03 
-4.966998e+01 4.700793e+01 2.232286e+03 
-6.816265e+01 1.314560e+02 2.282551e+03 
-8.665533e+01 2.159041e+02 2.332816e+03 
-1.051480e+02 3.003522e+02 2.383080e+03 
-1.236407e+02 3.848003e+02 2.433345e+03 
-1.848883e+01 -5.593804e+02 1.869904e+03 
-3.698151e+01 -4.749324e+02 1.920169e+03 
-5.547419e+01 -3.904843e+02 1.970433e+03 
-7.396686e+01 -3.060362e+02 2.020698e+03 
-9.245954e+01 -2.215881e+02 2.070963e+03 
-1.109522e+02 -1.371400e+02 2.121227e+03 
-1.294449e+02 -5.269189e+01 2.171492e+03 
-1.479376e+02 3.175620e+01 2.221757e+03 
-1.664302e+02 1.162043e+02 2.272022e+03 
-1.849229e+02 2.006524e+02 2.322286e+03 
-2.034156e+02 2.851005e+02 2.372551e+03 
-2.219083e+02 3.695486e+02 2.422816e+03 
-1.167564e+02 -5.746322e+02 1.859375e+03 
-1.352491e+02 -4.901841e+02 1.909639e+03 
-1.537418e+02 -4.057360e+02 1.959904e+03 
-1.722345e+02 -3.212879e+02 2.010169e+03 
-1.907271e+02 -2.368398e+02 2.060433e+03 
-2.092198e+02 -1.523917e+02 2.110698e+03 
-2.277125e+02 -6.794362e+01 2.160963e+03 
-2.462052e+02 1.650447e+01 2.211228e+03 
-2.646978e+02 1.009526e+02 2.261492e+03 
-2.831905e+02 1.854007e+02 2.311757e+03 
-3.016832e+02 2.698488e+02 2.362022e+03 
-3.201759e+02 3.542968e+02 2.412286e+03 
-2.150240e+02 -5.898839e+02 1.848845e+03 
-2.335167e+02 -5.054358e+02 1.899110e+03 
-2.520094e+02 -4.209877e+02 1.949375e+03 
-2.705020e+02 -3.365396e+02 1.999639e+03 
-2.889947e+02 -2.520915e+02 2.049904e+03 
-3.074874e+02 -1.676434e+02 2.100169e+03 
-3.259801e+02 -8.319535e+01 2.150434e+03 
-3.444727e+02 1.252741e+00 2.200698e+03 
-3.629654e+02 8.570083e+01 2.250963e+03 
-3.814581e+02 1.701489e+02 2.301228e+03 
-3.999508e+02 2.545970e+02 2.351492e+03 
-4.184434e+02 3.390451e+02 2.401757e+03 
