5.597660e+02 -4.484648e+01 1.094842e+03 
5.599572e+02 1.288243e+01 1.176496e+03 
5.601483e+02 7.061135e+01 1.258150e+03 
5.603395e+02 1.283403e+02 1.339804e+03 
5.605306e+02 1.860692e+02 1.421457e+03 
5.607218e+02 2.437981e+02 1.503111e+03 
5.609130e+02 3.015270e+02 1.584765e+03 
5.611041e+02 3.592559e+02 1.666419e+03 
5.612953e+02 4.169848e+02 1.748072e+03 
5.614865e+02 4.747137e+02 1.829726e+03 
5.616776e+02 5.324426e+02 1.911380e+03 
5.618688e+02 5.901715e+02 1.993034e+03 
4.794972e+02 -9.345600e+01 1.129397e+03 
4.796883e+02 -3.572709e+01 1.211051e+03 
4.798795e+02 2.200182e+01 1.292704e+03 
4.800706e+02 7.973073e+01 1.374358e+03 
4.802618e+02 1.374596e+02 1.456012e+03 
4.804530e+02 1.951886e+02 1.537666e+03 
4.806441e+02 2.529175e+02 1.619320e+03 
4.808353e+02 3.106464e+02 1.700973e+03 
4.810264e+02 3.683753e+02 1.782627e+03 
4.812176e+02 4.261042e+02 1.864281e+03 
4.814088e+02 4.838331e+02 1.945935e+03 
4.815999e+02 5.415620e+02 2.027588e+03 
3.992283e+02 -1.420655e+02 1.163952e+03 
3.994195e+02 -8.433661e+01 1.245605e+03 
3.996106e+02 -2.660770e+01 1.327259e+03 
3.998018e+02 3.112121e+01 1.408913e+03 
3.999929e+02 8.885012e+01 1.490567e+03 
4.001841e+02 1.465790e+02 1.572220e+03 
4.003753e+02 2.043079e+02 1.653874e+03 
4.005664e+02 2.620369e+02 1.735528e+03 
4.007576e+02 3.197658e+02 1.817182e+03 
4.009488e+02 3.774947e+02 1.898835e+03 
4.011399e+02 4.352236e+02 1.980489e+03 
4.013311e+02 4.929525e+02 2.062143e+03 
3.189595e+02 -1.906750e+02 1.198506e+03 
3.191506e+02 -1.329461e+02 1.280160e+03 
3.193418e+02 -7.521723e+01 1.361814e+03 
3.195329e+02 -1.748832e+01 1.443468e+03 
3.197241e+02 4.024059e+01 1.525121e+03 
3.199153e+02 9.796950e+01 1.606775e+03 
3.201064e+02 1.556984e+02 1.688429e+03 
3.202976e+02 2.134273e+02 1.770083e+03 
3.204887e+02 2.711562e+02 1.851736e+03 
3.206799e+02 3.288851e+02 1.933390e+03 
3.208711e+02 3.866141e+02 2.015044e+03 
3.210622e+02 4.443430e+02 2.096698e+03 
2.386906e+02 -2.392846e+02 1.233061e+03 
2.388818e+02 -1.815557e+02 1.314715e+03 
2.390729e+02 -1.238268e+02 1.396369e+03 
2.392641e+02 -6.609784e+01 1.478022e+03 
2.394552e+02 -8.368931e+00 1.559676e+03 
2.396464e+02 4.935998e+01 1.641330e+03 
2.398376e+02 1.070889e+02 1.722984e+03 
2.400287e+02 1.648178e+02 1.804637e+03 
2.402199e+02 2.225467e+02 1.886291e+03 
2.404111e+02 2.802756e+02 1.967945e+03 
2.406022e+02 3.380045e+02 2.049599e+03 
2.407934e+02 3.957334e+02 2.131252e+03 
1.584217e+02 -2.878941e+02 1.267616e+03 
1.586129e+02 -2.301652e+02 1.349269e+03 
1.588041e+02 -1.724363e+02 1.430923e+03 
1.589952e+02 -1.147074e+02 1.512577e+03 
1.591864e+02 -5.697846e+01 1.594231e+03 
1.593776e+02 7.504555e-01 1.675884e+03 
1.595687e+02 5.847937e+01 1.757538e+03 
1.597599e+02 1.162083e+02 1.839192e+03 
1.599510e+02 1.739372e+02 1.920846e+03 
1.601422e+02 2.316661e+02 2.002500e+03 
1.603334e+02 2.893950e+02 2.084153e+03 
1.605245e+02 3.471239e+02 2.165807e+03 
7.815290e+01 -3.365036e+02 1.302170e+03 
7.834406e+01 -2.787747e+02 1.383824e+03 
7.853522e+01 -2.210458e+02 1.465478e+03 
7.872638e+01 -1.633169e+02 1.547132e+03 
7.891754e+01 -1.055880e+02 1.628785e+03 
7.910870e+01 -4.785907e+01 1.710439e+03 
7.929987e+01 9.869842e+00 1.792093e+03 
7.949103e+01 6.759875e+01 1.873747e+03 
7.968219e+01 1.253277e+02 1.955400e+03 
7.987335e+01 1.830566e+02 2.037054e+03 
8.006451e+01 2.407855e+02 2.118708e+03 
8.025567e+01 2.985144e+02 2.200362e+03 
-2.115954e+00 -3.851131e+02 1.336725e+03 
-1.924793e+00 -3.273842e+02 1.418379e+03 
-1.733631e+00 -2.696553e+02 1.500033e+03 
-1.542470e+00 -2.119264e+02 1.581686e+03 
-1.351308e+00 -1.541975e+02 1.663340e+03 
-1.160147e+00 -9.646859e+01 1.744994e+03 
-9.689856e-01 -3.873968e+01 1.826648e+03 
-7.778242e-01 1.898923e+01 1.908301e+03 
-5.866628e-01 7.671814e+01 1.989955e+03 
-3.955014e-01 1.344470e+02 2.071609e+03 
-2.043400e-01 1.921760e+02 2.153263e+03 
-1.317855e-02 2.499049e+02 2.234916e+03 
-8.238481e+01 -4.337227e+02 1.371280e+03 
-8.219364e+01 -3.759938e+02 1.452933e+03 
-8.200248e+01 -3.182649e+02 1.534587e+03 
-8.181132e+01 -2.605359e+02 1.616241e+03 
-8.162016e+01 -2.028070e+02 1.697895e+03 
-8.142900e+01 -1.450781e+02 1.779549e+03 
-8.123784e+01 -8.734921e+01 1.861202e+03 
-8.104668e+01 -2.962030e+01 1.942856e+03 
-8.085551e+01 2.810861e+01 2.024510e+03 
-8.066435e+01 8.583753e+01 2.106164e+03 
-8.047319e+01 1.435664e+02 2.187817e+03 
-8.028203e+01 2.012953e+02 2.269471e+03 
-1.626537e+02 -4.823322e+02 1.405834e+03 
-1.624625e+02 -4.246033e+02 1.487488e+03 
-1.622713e+02 -3.668744e+02 1.569142e+03 
-1.620802e+02 -3.091455e+02 1.650796e+03 
-1.618890e+02 -2.514166e+02 1.732449e+03 
-1.616978e+02 -1.936876e+02 1.814103e+03 
-1.615067e+02 -1.359587e+02 1.895757e+03 
-1.613155e+02 -7.822982e+01 1.977411e+03 
-1.611244e+02 -2.050091e+01 2.059064e+03 
-1.609332e+02 3.722800e+01 2.140718e+03 
-1.607420e+02 9.495691e+01 2.222372e+03 
-1.605509e+02 1.526858e+02 2.304026e+03 
-2.429225e+02 -5.309417e+02 1.440389e+03 
-2.427313e+02 -4.732128e+02 1.522043e+03 
-2.425402e+02 -4.154839e+02 1.603697e+03 
-2.423490e+02 -3.577550e+02 1.685350e+03 
-2.421579e+02 -3.000261e+02 1.767004e+03 
-2.419667e+02 -2.422972e+02 1.848658e+03 
-2.417755e+02 -1.845683e+02 1.930312e+03 
-2.415844e+02 -1.268393e+02 2.011965e+03 
-2.413932e+02 -6.911043e+01 2.093619e+03 
-2.412021e+02 -1.138152e+01 2.175273e+03 
-2.410109e+02 4.634739e+01 2.256927e+03 
-2.408197e+02 1.040763e+02 2.338580e+03 
-3.231914e+02 -5.795512e+02 1.474944e+03 
-3.230002e+02 -5.218223e+02 1.556597e+03 
-3.228090e+02 -4.640934e+02 1.638251e+03 
-3.226179e+02 -4.063645e+02 1.719905e+03 
-3.224267e+02 -3.486356e+02 1.801559e+03 
-3.222356e+02 -2.909067e+02 1.883213e+03 
-3.220444e+02 -2.331778e+02 1.964866e+03 
-3.218532e+02 -1.754489e+02 2.046520e+03 
-3.216621e+02 -1.177200e+02 2.128174e+03 
-3.214709e+02 -5.999105e+01 2.209828e+03 
-3.212797e+02 -2.262137e+00 2.291481e+03 
-3.210886e+02 5.546677e+01 2.373135e+03 
-4.034602e+02 -6.281608e+02 1.509498e+03 
-4.032690e+02 -5.704319e+02 1.591152e+03 
-4.030779e+02 -5.127029e+02 1.672806e+03 
-4.028867e+02 -4.549740e+02 1.754460e+03 
-4.026956e+02 -3.972451e+02 1.836113e+03 
-4.025044e+02 -3.395162e+02 1.917767e+03 
-4.023132e+02 -2.817873e+02 1.999421e+03 
-4.021221e+02 -2.240584e+02 2.081075e+03 
-4.019309e+02 -1.663295e+02 2.162728e+03 
-4.017398e+02 -1.086006e+02 2.244382e+03 
-4.015486e+02 -5.087166e+01 2.326036e+03 
-4.013574e+02 6.857249e+00 2.407690e+03 
