8.590973e+02 -5.688646e+02 1.693564e+03 
8.372116e+02 -5.049741e+02 1.767314e+03 
8.153260e+02 -4.410835e+02 1.841064e+03 
7.934403e+02 -3.771930e+02 1.914814e+03 
7.715546e+02 -3.133025e+02 1.988563e+03 
7.496689e+02 -2.494120e+02 2.062313e+03 
7.277833e+02 -1.855214e+02 2.136063e+03 
7.058976e+02 -1.216309e+02 2.209812e+03 
6.840119e+02 -5.774038e+01 2.283562e+03 
6.621262e+02 6.150146e+00 2.357312e+03 
6.402406e+02 7.004067e+01 2.431061e+03 
6.183549e+02 1.339312e+02 2.504811e+03 
7.719126e+02 -5.477289e+02 1.649382e+03 
7.500269e+02 -4.838384e+02 1.723131e+03 
7.281413e+02 -4.199479e+02 1.796881e+03 
7.062556e+02 -3.560574e+02 1.870631e+03 
6.843699e+02 -2.921668e+02 1.944381e+03 
6.624843e+02 -2.282763e+02 2.018130e+03 
6.405986e+02 -1.643858e+02 2.091880e+03 
6.187129e+02 -1.004953e+02 2.165630e+03 
5.968272e+02 -3.660473e+01 2.239379e+03 
5.749416e+02 2.728580e+01 2.313129e+03 
5.530559e+02 9.117633e+01 2.386879e+03 
5.311702e+02 1.550669e+02 2.460628e+03 
6.847279e+02 -5.265933e+02 1.605199e+03 
6.628423e+02 -4.627028e+02 1.678949e+03 
6.409566e+02 -3.988122e+02 1.752698e+03 
6.190709e+02 -3.349217e+02 1.826448e+03 
5.971852e+02 -2.710312e+02 1.900198e+03 
5.752996e+02 -2.071407e+02 1.973947e+03 
5.534139e+02 -1.432501e+02 2.047697e+03 
5.315282e+02 -7.935960e+01 2.121447e+03 
5.096425e+02 -1.546907e+01 2.195197e+03 
4.877569e+02 4.842146e+01 2.268946e+03 
4.658712e+02 1.123120e+02 2.342696e+03 
4.439855e+02 1.762025e+02 2.416446e+03 
5.975432e+02 -5.054576e+02 1.561016e+03 
5.756576e+02 -4.415671e+02 1.634766e+03 
5.537719e+02 -3.776766e+02 1.708516e+03 
5.318862e+02 -3.137861e+02 1.782265e+03 
5.100005e+02 -2.498955e+02 1.856015e+03 
4.881149e+02 -1.860050e+02 1.929765e+03 
4.662292e+02 -1.221145e+02 2.003514e+03 
4.443435e+02 -5.822394e+01 2.077264e+03 
4.224579e+02 5.666586e+00 2.151014e+03 
4.005722e+02 6.955711e+01 2.224764e+03 
3.786865e+02 1.334476e+02 2.298513e+03 
3.568008e+02 1.973382e+02 2.372263e+03 
5.103586e+02 -4.843220e+02 1.516834e+03 
4.884729e+02 -4.204315e+02 1.590583e+03 
4.665872e+02 -3.565409e+02 1.664333e+03 
4.447015e+02 -2.926504e+02 1.738083e+03 
4.228159e+02 -2.287599e+02 1.811832e+03 
4.009302e+02 -1.648693e+02 1.885582e+03 
3.790445e+02 -1.009788e+02 1.959332e+03 
3.571588e+02 -3.708829e+01 2.033081e+03 
3.352732e+02 2.680224e+01 2.106831e+03 
3.133875e+02 9.069277e+01 2.180581e+03 
2.915018e+02 1.545833e+02 2.254330e+03 
2.696162e+02 2.184738e+02 2.328080e+03 
4.231739e+02 -4.631863e+02 1.472651e+03 
4.012882e+02 -3.992958e+02 1.546400e+03 
3.794025e+02 -3.354053e+02 1.620150e+03 
3.575168e+02 -2.715147e+02 1.693900e+03 
3.356312e+02 -2.076242e+02 1.767650e+03 
3.137455e+02 -1.437337e+02 1.841399e+03 
2.918598e+02 -7.984316e+01 1.915149e+03 
2.699742e+02 -1.595263e+01 1.988899e+03 
2.480885e+02 4.793790e+01 2.062648e+03 
2.262028e+02 1.118284e+02 2.136398e+03 
2.043171e+02 1.757190e+02 2.210148e+03 
1.824315e+02 2.396095e+02 2.283897e+03 
3.359892e+02 -4.420507e+02 1.428468e+03 
3.141035e+02 -3.781601e+02 1.502218e+03 
2.922178e+02 -3.142696e+02 1.575967e+03 
2.703322e+02 -2.503791e+02 1.649717e+03 
2.484465e+02 -1.864886e+02 1.723467e+03 
2.265608e+02 -1.225980e+02 1.797217e+03 
2.046751e+02 -5.870750e+01 1.870966e+03 
1.827895e+02 5.183026e+00 1.944716e+03 
1.609038e+02 6.907355e+01 2.018466e+03 
1.390181e+02 1.329641e+02 2.092215e+03 
1.171325e+02 1.968546e+02 2.165965e+03 
9.524679e+01 2.607451e+02 2.239715e+03 
2.488045e+02 -4.209150e+02 1.384285e+03 
2.269188e+02 -3.570245e+02 1.458035e+03 
2.050331e+02 -2.931340e+02 1.531785e+03 
1.831475e+02 -2.292434e+02 1.605534e+03 
1.612618e+02 -1.653529e+02 1.679284e+03 
1.393761e+02 -1.014624e+02 1.753034e+03 
1.174905e+02 -3.757185e+01 1.826783e+03 
9.560479e+01 2.631868e+01 1.900533e+03 
7.371911e+01 9.020921e+01 1.974283e+03 
5.183344e+01 1.540997e+02 2.048033e+03 
2.994777e+01 2.179903e+02 2.121782e+03 
8.062099e+00 2.818808e+02 2.195532e+03 
1.616198e+02 -3.997794e+02 1.340103e+03 
1.397341e+02 -3.358888e+02 1.413852e+03 
1.178485e+02 -2.719983e+02 1.487602e+03 
9.596279e+01 -2.081078e+02 1.561352e+03 
7.407712e+01 -1.442172e+02 1.635101e+03 
5.219144e+01 -8.032672e+01 1.708851e+03 
3.030577e+01 -1.643619e+01 1.782601e+03 
8.420100e+00 4.745434e+01 1.856350e+03 
-1.346557e+01 1.113449e+02 1.930100e+03 
-3.535124e+01 1.752354e+02 2.003850e+03 
-5.723692e+01 2.391259e+02 2.077600e+03 
-7.912259e+01 3.030164e+02 2.151349e+03 
7.443512e+01 -3.786437e+02 1.295920e+03 
5.254945e+01 -3.147532e+02 1.369670e+03 
3.066377e+01 -2.508626e+02 1.443419e+03 
8.778102e+00 -1.869721e+02 1.517169e+03 
-1.310757e+01 -1.230816e+02 1.590919e+03 
-3.499324e+01 -5.919106e+01 1.664668e+03 
-5.687891e+01 4.699466e+00 1.738418e+03 
-7.876459e+01 6.858999e+01 1.812168e+03 
-1.006503e+02 1.324805e+02 1.885917e+03 
-1.225359e+02 1.963710e+02 1.959667e+03 
-1.444216e+02 2.602616e+02 2.033417e+03 
-1.663073e+02 3.241521e+02 2.107166e+03 
-1.274957e+01 -3.575080e+02 1.251737e+03 
-3.463524e+01 -2.936175e+02 1.325487e+03 
-5.652091e+01 -2.297270e+02 1.399236e+03 
-7.840659e+01 -1.658365e+02 1.472986e+03 
-1.002923e+02 -1.019459e+02 1.546736e+03 
-1.221779e+02 -3.805541e+01 1.620486e+03 
-1.440636e+02 2.583512e+01 1.694235e+03 
-1.659493e+02 8.972565e+01 1.767985e+03 
-1.878349e+02 1.536162e+02 1.841735e+03 
-2.097206e+02 2.175067e+02 1.915484e+03 
-2.316063e+02 2.813972e+02 1.989234e+03 
-2.534920e+02 3.452878e+02 2.062984e+03 
-9.993426e+01 -3.363724e+02 1.207554e+03 
-1.218199e+02 -2.724819e+02 1.281304e+03 
-1.437056e+02 -2.085913e+02 1.355054e+03 
-1.655913e+02 -1.447008e+02 1.428803e+03 
-1.874769e+02 -8.081028e+01 1.502553e+03 
-2.093626e+02 -1.691975e+01 1.576303e+03 
-2.312483e+02 4.697078e+01 1.650053e+03 
-2.531340e+02 1.108613e+02 1.723802e+03 
-2.750196e+02 1.747518e+02 1.797552e+03 
-2.969053e+02 2.386424e+02 1.871302e+03 
-3.187910e+02 3.025329e+02 1.945051e+03 
-3.406766e+02 3.664234e+02 2.018801e+03 
-1.871189e+02 -3.152367e+02 1.163372e+03 
-2.090046e+02 -2.513462e+02 1.237121e+03 
-2.308903e+02 -1.874557e+02 1.310871e+03 
-2.527760e+02 -1.235651e+02 1.384621e+03 
-2.746616e+02 -5.967462e+01 1.458370e+03 
-2.965473e+02 4.215906e+00 1.532120e+03 
-3.184330e+02 6.810643e+01 1.605870e+03 
-3.403186e+02 1.319970e+02 1.679619e+03 
-3.622043e+02 1.958875e+02 1.753369e+03 
-3.840900e+02 2.597780e+02 1.827119e+03 
-4.059757e+02 3.236685e+02 1.900869e+03 
-4.278613e+02 3.875591e+02 1.974618e+03 
