1.015181e+03 -4.287009e+02 2.531490e+03 
9.884496e+02 -3.422449e+02 2.488936e+03 
9.617185e+02 -2.557888e+02 2.446383e+03 
9.349873e+02 -1.693327e+02 2.403830e+03 
9.082561e+02 -8.287663e+01 2.361276e+03 
8.815250e+02 3.579452e+00 2.318723e+03 
8.547938e+02 9.003553e+01 2.276169e+03 
8.280626e+02 1.764916e+02 2.233616e+03 
8.013315e+02 2.629477e+02 2.191063e+03 
7.746003e+02 3.494038e+02 2.148509e+03 
7.478691e+02 4.358598e+02 2.105956e+03 
7.211380e+02 5.223159e+02 2.063402e+03 
9.190131e+02 -4.554320e+02 2.537591e+03 
8.922819e+02 -3.689759e+02 2.495037e+03 
8.655507e+02 -2.825198e+02 2.452484e+03 
8.388196e+02 -1.960637e+02 2.409931e+03 
8.120884e+02 -1.096077e+02 2.367377e+03 
7.853572e+02 -2.315157e+01 2.324824e+03 
7.586261e+02 6.330451e+01 2.282270e+03 
7.318949e+02 1.497606e+02 2.239717e+03 
7.051637e+02 2.362167e+02 2.197164e+03 
6.784326e+02 3.226727e+02 2.154610e+03 
6.517014e+02 4.091288e+02 2.112057e+03 
6.249702e+02 4.955849e+02 2.069503e+03 
8.228453e+02 -4.821630e+02 2.543692e+03 
7.961142e+02 -3.957069e+02 2.501138e+03 
7.693830e+02 -3.092508e+02 2.458585e+03 
7.426518e+02 -2.227948e+02 2.416032e+03 
7.159207e+02 -1.363387e+02 2.373478e+03 
6.891895e+02 -4.988259e+01 2.330925e+03 
6.624584e+02 3.657348e+01 2.288371e+03 
6.357272e+02 1.230296e+02 2.245818e+03 
6.089960e+02 2.094856e+02 2.203265e+03 
5.822649e+02 2.959417e+02 2.160711e+03 
5.555337e+02 3.823978e+02 2.118158e+03 
5.288025e+02 4.688539e+02 2.075604e+03 
7.266776e+02 -5.088940e+02 2.549793e+03 
6.999465e+02 -4.224379e+02 2.507239e+03 
6.732153e+02 -3.359819e+02 2.464686e+03 
6.464841e+02 -2.495258e+02 2.422132e+03 
6.197530e+02 -1.630697e+02 2.379579e+03 
5.930218e+02 -7.661362e+01 2.337026e+03 
5.662906e+02 9.842460e+00 2.294472e+03 
5.395595e+02 9.629854e+01 2.251919e+03 
5.128283e+02 1.827546e+02 2.209365e+03 
4.860971e+02 2.692107e+02 2.166812e+03 
4.593660e+02 3.556668e+02 2.124259e+03 
4.326348e+02 4.421229e+02 2.081705e+03 
6.305099e+02 -5.356250e+02 2.555894e+03 
6.037787e+02 -4.491690e+02 2.513340e+03 
5.770476e+02 -3.627129e+02 2.470787e+03 
5.503164e+02 -2.762568e+02 2.428233e+03 
5.235852e+02 -1.898007e+02 2.385680e+03 
4.968541e+02 -1.033446e+02 2.343127e+03 
4.701229e+02 -1.688856e+01 2.300573e+03 
4.433917e+02 6.956752e+01 2.258020e+03 
4.166606e+02 1.560236e+02 2.215466e+03 
3.899294e+02 2.424797e+02 2.172913e+03 
3.631982e+02 3.289358e+02 2.130360e+03 
3.364671e+02 4.153918e+02 2.087806e+03 
5.343422e+02 -5.623561e+02 2.561995e+03 
5.076110e+02 -4.759000e+02 2.519441e+03 
4.808798e+02 -3.894439e+02 2.476888e+03 
4.541487e+02 -3.029878e+02 2.434334e+03 
4.274175e+02 -2.165317e+02 2.391781e+03 
4.006863e+02 -1.300757e+02 2.349228e+03 
3.739552e+02 -4.361959e+01 2.306674e+03 
3.472240e+02 4.283649e+01 2.264121e+03 
3.204929e+02 1.292926e+02 2.221567e+03 
2.937617e+02 2.157486e+02 2.179014e+03 
2.670305e+02 3.022047e+02 2.136461e+03 
2.402994e+02 3.886608e+02 2.093907e+03 
4.381744e+02 -5.890871e+02 2.568095e+03 
4.114433e+02 -5.026310e+02 2.525542e+03 
3.847121e+02 -4.161749e+02 2.482989e+03 
3.579810e+02 -3.297188e+02 2.440435e+03 
3.312498e+02 -2.432628e+02 2.397882e+03 
3.045186e+02 -1.568067e+02 2.355328e+03 
2.777875e+02 -7.035061e+01 2.312775e+03 
2.510563e+02 1.610547e+01 2.270222e+03 
2.243251e+02 1.025615e+02 2.227668e+03 
1.975940e+02 1.890176e+02 2.185115e+03 
1.708628e+02 2.754737e+02 2.142562e+03 
1.441316e+02 3.619298e+02 2.100008e+03 
3.420067e+02 -6.158181e+02 2.574196e+03 
3.152756e+02 -5.293620e+02 2.531643e+03 
2.885444e+02 -4.429059e+02 2.489090e+03 
2.618132e+02 -3.564499e+02 2.446536e+03 
2.350821e+02 -2.699938e+02 2.403983e+03 
2.083509e+02 -1.835377e+02 2.361429e+03 
1.816197e+02 -9.708163e+01 2.318876e+03 
1.548886e+02 -1.062555e+01 2.276323e+03 
1.281574e+02 7.583052e+01 2.233769e+03 
1.014262e+02 1.622866e+02 2.191216e+03 
7.469508e+01 2.487427e+02 2.148662e+03 
4.796391e+01 3.351988e+02 2.106109e+03 
2.458390e+02 -6.425491e+02 2.580297e+03 
2.191078e+02 -5.560930e+02 2.537744e+03 
1.923767e+02 -4.696370e+02 2.495191e+03 
1.656455e+02 -3.831809e+02 2.452637e+03 
1.389143e+02 -2.967248e+02 2.410084e+03 
1.121832e+02 -2.102687e+02 2.367530e+03 
8.545201e+01 -1.238127e+02 2.324977e+03 
5.872085e+01 -3.735658e+01 2.282424e+03 
3.198968e+01 4.909950e+01 2.239870e+03 
5.258520e+00 1.355556e+02 2.197317e+03 
-2.147264e+01 2.220117e+02 2.154763e+03 
-4.820381e+01 3.084677e+02 2.112210e+03 
1.496713e+02 -6.692802e+02 2.586398e+03 
1.229401e+02 -5.828241e+02 2.543845e+03 
9.620895e+01 -4.963680e+02 2.501292e+03 
6.947779e+01 -4.099119e+02 2.458738e+03 
4.274662e+01 -3.234558e+02 2.416185e+03 
1.601546e+01 -2.369998e+02 2.373631e+03 
-1.071571e+01 -1.505437e+02 2.331078e+03 
-3.744687e+01 -6.408760e+01 2.288525e+03 
-6.417804e+01 2.236848e+01 2.245971e+03 
-9.090920e+01 1.088246e+02 2.203418e+03 
-1.176404e+02 1.952806e+02 2.160864e+03 
-1.443715e+02 2.817367e+02 2.118311e+03 
5.350356e+01 -6.960112e+02 2.592499e+03 
2.677239e+01 -6.095551e+02 2.549946e+03 
4.122883e-02 -5.230990e+02 2.507392e+03 
-2.668994e+01 -4.366429e+02 2.464839e+03 
-5.342110e+01 -3.501869e+02 2.422286e+03 
-8.015227e+01 -2.637308e+02 2.379732e+03 
-1.068834e+02 -1.772747e+02 2.337179e+03 
-1.336146e+02 -9.081862e+01 2.294625e+03 
-1.603458e+02 -4.362546e+00 2.252072e+03 
-1.870769e+02 8.209353e+01 2.209519e+03 
-2.138081e+02 1.685496e+02 2.166965e+03 
-2.405393e+02 2.550057e+02 2.124412e+03 
-4.266416e+01 -7.227422e+02 2.598600e+03 
-6.939533e+01 -6.362861e+02 2.556047e+03 
-9.612649e+01 -5.498300e+02 2.513493e+03 
-1.228577e+02 -4.633740e+02 2.470940e+03 
-1.495888e+02 -3.769179e+02 2.428387e+03 
-1.763200e+02 -2.904618e+02 2.385833e+03 
-2.030512e+02 -2.040057e+02 2.343280e+03 
-2.297823e+02 -1.175496e+02 2.300726e+03 
-2.565135e+02 -3.109357e+01 2.258173e+03 
-2.832446e+02 5.536251e+01 2.215620e+03 
-3.099758e+02 1.418186e+02 2.173066e+03 
-3.367070e+02 2.282747e+02 2.130513e+03 
-1.388319e+02 -7.494732e+02 2.604701e+03 
-1.655631e+02 -6.630171e+02 2.562148e+03 
-1.922942e+02 -5.765611e+02 2.519594e+03 
-2.190254e+02 -4.901050e+02 2.477041e+03 
-2.457565e+02 -4.036489e+02 2.434488e+03 
-2.724877e+02 -3.171928e+02 2.391934e+03 
-2.992189e+02 -2.307367e+02 2.349381e+03 
-3.259500e+02 -1.442807e+02 2.306827e+03 
-3.526812e+02 -5.782459e+01 2.264274e+03 
-3.794124e+02 2.863149e+01 2.221721e+03 
-4.061435e+02 1.150876e+02 2.179167e+03 
-4.328747e+02 2.015436e+02 2.136614e+03 
