9.842141e+02 -3.862412e+02 1.805091e+03 
9.666944e+02 -3.002511e+02 1.853036e+03 
9.491748e+02 -2.142609e+02 1.900982e+03 
9.316552e+02 -1.282708e+02 1.948927e+03 
9.141355e+02 -4.228067e+01 1.996872e+03 
8.966159e+02 4.370946e+01 2.044818e+03 
8.790963e+02 1.296996e+02 2.092763e+03 
8.615766e+02 2.156897e+02 2.140709e+03 
8.440570e+02 3.016798e+02 2.188654e+03 
8.265374e+02 3.876700e+02 2.236599e+03 
8.090177e+02 4.736601e+02 2.284545e+03 
7.914981e+02 5.596502e+02 2.332490e+03 
8.858078e+02 -4.000300e+02 1.793863e+03 
8.682882e+02 -3.140398e+02 1.841808e+03 
8.507685e+02 -2.280497e+02 1.889753e+03 
8.332489e+02 -1.420596e+02 1.937699e+03 
8.157293e+02 -5.606946e+01 1.985644e+03 
7.982096e+02 2.992067e+01 2.033590e+03 
7.806900e+02 1.159108e+02 2.081535e+03 
7.631704e+02 2.019009e+02 2.129480e+03 
7.456507e+02 2.878911e+02 2.177426e+03 
7.281311e+02 3.738812e+02 2.225371e+03 
7.106115e+02 4.598713e+02 2.273316e+03 
6.930918e+02 5.458614e+02 2.321262e+03 
7.874015e+02 -4.138188e+02 1.782634e+03 
7.698819e+02 -3.278286e+02 1.830580e+03 
7.523622e+02 -2.418385e+02 1.878525e+03 
7.348426e+02 -1.558484e+02 1.926471e+03 
7.173230e+02 -6.985825e+01 1.974416e+03 
6.998033e+02 1.613188e+01 2.022361e+03 
6.822837e+02 1.021220e+02 2.070307e+03 
6.647641e+02 1.881121e+02 2.118252e+03 
6.472444e+02 2.741023e+02 2.166197e+03 
6.297248e+02 3.600924e+02 2.214143e+03 
6.122052e+02 4.460825e+02 2.262088e+03 
5.946855e+02 5.320726e+02 2.310034e+03 
6.889952e+02 -4.276076e+02 1.771406e+03 
6.714756e+02 -3.416174e+02 1.819352e+03 
6.539560e+02 -2.556273e+02 1.867297e+03 
6.364363e+02 -1.696372e+02 1.915242e+03 
6.189167e+02 -8.364704e+01 1.963188e+03 
6.013971e+02 2.343089e+00 2.011133e+03 
5.838774e+02 8.833322e+01 2.059078e+03 
5.663578e+02 1.743233e+02 2.107024e+03 
5.488382e+02 2.603135e+02 2.154969e+03 
5.313185e+02 3.463036e+02 2.202915e+03 
5.137989e+02 4.322937e+02 2.250860e+03 
4.962793e+02 5.182839e+02 2.298805e+03 
5.905889e+02 -4.413963e+02 1.760178e+03 
5.730693e+02 -3.554062e+02 1.808123e+03 
5.555497e+02 -2.694161e+02 1.856069e+03 
5.380300e+02 -1.834260e+02 1.904014e+03 
5.205104e+02 -9.743583e+01 1.951959e+03 
5.029908e+02 -1.144570e+01 1.999905e+03 
4.854711e+02 7.454443e+01 2.047850e+03 
4.679515e+02 1.605346e+02 2.095796e+03 
4.504319e+02 2.465247e+02 2.143741e+03 
4.329122e+02 3.325148e+02 2.191686e+03 
4.153926e+02 4.185049e+02 2.239632e+03 
3.978730e+02 5.044951e+02 2.287577e+03 
4.921827e+02 -4.551851e+02 1.748950e+03 
4.746630e+02 -3.691950e+02 1.796895e+03 
4.571434e+02 -2.832049e+02 1.844840e+03 
4.396238e+02 -1.972147e+02 1.892786e+03 
4.221041e+02 -1.112246e+02 1.940731e+03 
4.045845e+02 -2.523449e+01 1.988677e+03 
3.870649e+02 6.075564e+01 2.036622e+03 
3.695452e+02 1.467458e+02 2.084567e+03 
3.520256e+02 2.327359e+02 2.132513e+03 
3.345060e+02 3.187260e+02 2.180458e+03 
3.169863e+02 4.047161e+02 2.228404e+03 
2.994667e+02 4.907063e+02 2.276349e+03 
3.937764e+02 -4.689739e+02 1.737721e+03 
3.762567e+02 -3.829838e+02 1.785667e+03 
3.587371e+02 -2.969937e+02 1.833612e+03 
3.412175e+02 -2.110035e+02 1.881558e+03 
3.236979e+02 -1.250134e+02 1.929503e+03 
3.061782e+02 -3.902328e+01 1.977448e+03 
2.886586e+02 4.696685e+01 2.025394e+03 
2.711390e+02 1.329570e+02 2.073339e+03 
2.536193e+02 2.189471e+02 2.121285e+03 
2.360997e+02 3.049372e+02 2.169230e+03 
2.185801e+02 3.909274e+02 2.217175e+03 
2.010604e+02 4.769175e+02 2.265121e+03 
2.953701e+02 -4.827627e+02 1.726493e+03 
2.778505e+02 -3.967726e+02 1.774439e+03 
2.603308e+02 -3.107825e+02 1.822384e+03 
2.428112e+02 -2.247923e+02 1.870329e+03 
2.252916e+02 -1.388022e+02 1.918275e+03 
2.077719e+02 -5.281207e+01 1.966220e+03 
1.902523e+02 3.317806e+01 2.014166e+03 
1.727327e+02 1.191682e+02 2.062111e+03 
1.552130e+02 2.051583e+02 2.110056e+03 
1.376934e+02 2.911484e+02 2.158002e+03 
1.201738e+02 3.771386e+02 2.205947e+03 
1.026541e+02 4.631287e+02 2.253892e+03 
1.969638e+02 -4.965515e+02 1.715265e+03 
1.794442e+02 -4.105614e+02 1.763210e+03 
1.619246e+02 -3.245712e+02 1.811156e+03 
1.444049e+02 -2.385811e+02 1.859101e+03 
1.268853e+02 -1.525910e+02 1.907047e+03 
1.093657e+02 -6.660086e+01 1.954992e+03 
9.184603e+01 1.938927e+01 2.002937e+03 
7.432639e+01 1.053794e+02 2.050883e+03 
5.680676e+01 1.913695e+02 2.098828e+03 
3.928713e+01 2.773597e+02 2.146773e+03 
2.176750e+01 3.633498e+02 2.194719e+03 
4.247862e+00 4.493399e+02 2.242664e+03 
9.855754e+01 -5.103403e+02 1.704037e+03 
8.103791e+01 -4.243502e+02 1.751982e+03 
6.351828e+01 -3.383600e+02 1.799928e+03 
4.599864e+01 -2.523699e+02 1.847873e+03 
2.847901e+01 -1.663798e+02 1.895818e+03 
1.095938e+01 -8.038965e+01 1.943764e+03 
-6.560255e+00 5.600476e+00 1.991709e+03 
-2.407989e+01 9.159060e+01 2.039654e+03 
-4.159952e+01 1.775807e+02 2.087600e+03 
-5.911915e+01 2.635709e+02 2.135545e+03 
-7.663879e+01 3.495610e+02 2.183491e+03 
-9.415842e+01 4.355511e+02 2.231436e+03 
1.512607e-01 -5.241291e+02 1.692808e+03 
-1.736837e+01 -4.381390e+02 1.740754e+03 
-3.488800e+01 -3.521488e+02 1.788699e+03 
-5.240764e+01 -2.661587e+02 1.836645e+03 
-6.992727e+01 -1.801686e+02 1.884590e+03 
-8.744690e+01 -9.417844e+01 1.932535e+03 
-1.049665e+02 -8.188314e+00 1.980481e+03 
-1.224862e+02 7.780181e+01 2.028426e+03 
-1.400058e+02 1.637919e+02 2.076372e+03 
-1.575254e+02 2.497821e+02 2.124317e+03 
-1.750451e+02 3.357722e+02 2.172262e+03 
-1.925647e+02 4.217623e+02 2.220208e+03 
-9.825502e+01 -5.379179e+02 1.681580e+03 
-1.157747e+02 -4.519277e+02 1.729526e+03 
-1.332943e+02 -3.659376e+02 1.777471e+03 
-1.508139e+02 -2.799475e+02 1.825416e+03 
-1.683336e+02 -1.939574e+02 1.873362e+03 
-1.858532e+02 -1.079672e+02 1.921307e+03 
-2.033728e+02 -2.197710e+01 1.969253e+03 
-2.208924e+02 6.401302e+01 2.017198e+03 
-2.384121e+02 1.500032e+02 2.065143e+03 
-2.559317e+02 2.359933e+02 2.113089e+03 
-2.734513e+02 3.219834e+02 2.161034e+03 
-2.909710e+02 4.079735e+02 2.208980e+03 
-1.966613e+02 -5.517067e+02 1.670352e+03 
-2.141809e+02 -4.657165e+02 1.718297e+03 
-2.317006e+02 -3.797264e+02 1.766243e+03 
-2.492202e+02 -2.937363e+02 1.814188e+03 
-2.667398e+02 -2.077462e+02 1.862134e+03 
-2.842595e+02 -1.217560e+02 1.910079e+03 
-3.017791e+02 -3.576589e+01 1.958024e+03 
-3.192987e+02 5.022423e+01 2.005970e+03 
-3.368184e+02 1.362144e+02 2.053915e+03 
-3.543380e+02 2.222045e+02 2.101861e+03 
-3.718576e+02 3.081946e+02 2.149806e+03 
-3.893773e+02 3.941847e+02 2.197751e+03 
