4.893321e+02 -8.021649e+02 2.170668e+03 
4.724690e+02 -7.233027e+02 2.229798e+03 
4.556059e+02 -6.444405e+02 2.288928e+03 
4.387427e+02 -5.655783e+02 2.348059e+03 
4.218796e+02 -4.867162e+02 2.407189e+03 
4.050164e+02 -4.078540e+02 2.466319e+03 
3.881533e+02 -3.289918e+02 2.525449e+03 
3.712902e+02 -2.501296e+02 2.584580e+03 
3.544270e+02 -1.712674e+02 2.643710e+03 
3.375639e+02 -9.240521e+01 2.702840e+03 
3.207008e+02 -1.354303e+01 2.761970e+03 
3.038376e+02 6.531916e+01 2.821101e+03 
4.238306e+02 -7.663030e+02 2.104158e+03 
4.069674e+02 -6.874409e+02 2.163289e+03 
3.901043e+02 -6.085787e+02 2.222419e+03 
3.732412e+02 -5.297165e+02 2.281549e+03 
3.563780e+02 -4.508543e+02 2.340680e+03 
3.395149e+02 -3.719921e+02 2.399810e+03 
3.226518e+02 -2.931299e+02 2.458940e+03 
3.057886e+02 -2.142677e+02 2.518070e+03 
2.889255e+02 -1.354055e+02 2.577201e+03 
2.720623e+02 -5.654335e+01 2.636331e+03 
2.551992e+02 2.231884e+01 2.695461e+03 
2.383361e+02 1.011810e+02 2.754592e+03 
3.583290e+02 -7.304412e+02 2.037649e+03 
3.414659e+02 -6.515790e+02 2.096780e+03 
3.246028e+02 -5.727168e+02 2.155910e+03 
3.077396e+02 -4.938546e+02 2.215040e+03 
2.908765e+02 -4.149924e+02 2.274170e+03 
2.740133e+02 -3.361302e+02 2.333301e+03 
2.571502e+02 -2.572680e+02 2.392431e+03 
2.402871e+02 -1.784059e+02 2.451561e+03 
2.234239e+02 -9.954367e+01 2.510692e+03 
2.065608e+02 -2.068149e+01 2.569822e+03 
1.896976e+02 5.818070e+01 2.628952e+03 
1.728345e+02 1.370429e+02 2.688082e+03 
2.928275e+02 -6.945793e+02 1.971140e+03 
2.759643e+02 -6.157171e+02 2.030270e+03 
2.591012e+02 -5.368549e+02 2.089401e+03 
2.422381e+02 -4.579927e+02 2.148531e+03 
2.253749e+02 -3.791306e+02 2.207661e+03 
2.085118e+02 -3.002684e+02 2.266791e+03 
1.916486e+02 -2.214062e+02 2.325922e+03 
1.747855e+02 -1.425440e+02 2.385052e+03 
1.579224e+02 -6.368181e+01 2.444182e+03 
1.410592e+02 1.518038e+01 2.503313e+03 
1.241961e+02 9.404257e+01 2.562443e+03 
1.073329e+02 1.729048e+02 2.621573e+03 
2.273259e+02 -6.587174e+02 1.904631e+03 
2.104628e+02 -5.798553e+02 1.963761e+03 
1.935996e+02 -5.009931e+02 2.022891e+03 
1.767365e+02 -4.221309e+02 2.082022e+03 
1.598734e+02 -3.432687e+02 2.141152e+03 
1.430102e+02 -2.644065e+02 2.200282e+03 
1.261471e+02 -1.855443e+02 2.259413e+03 
1.092839e+02 -1.066821e+02 2.318543e+03 
9.242080e+01 -2.781994e+01 2.377673e+03 
7.555766e+01 5.104224e+01 2.436803e+03 
5.869452e+01 1.299044e+02 2.495934e+03 
4.183138e+01 2.087666e+02 2.555064e+03 
1.618244e+02 -6.228556e+02 1.838122e+03 
1.449612e+02 -5.439934e+02 1.897252e+03 
1.280981e+02 -4.651312e+02 1.956382e+03 
1.112349e+02 -3.862690e+02 2.015513e+03 
9.437180e+01 -3.074068e+02 2.074643e+03 
7.750866e+01 -2.285446e+02 2.133773e+03 
6.064552e+01 -1.496825e+02 2.192903e+03 
4.378238e+01 -7.082027e+01 2.252034e+03 
2.691924e+01 8.041921e+00 2.311164e+03 
1.005610e+01 8.690411e+01 2.370294e+03 
-6.807037e+00 1.657663e+02 2.429424e+03 
-2.367018e+01 2.446285e+02 2.488555e+03 
9.632280e+01 -5.869937e+02 1.771613e+03 
7.945966e+01 -5.081315e+02 1.830743e+03 
6.259652e+01 -4.292693e+02 1.889873e+03 
4.573338e+01 -3.504072e+02 1.949003e+03 
2.887024e+01 -2.715450e+02 2.008134e+03 
1.200710e+01 -1.926828e+02 2.067264e+03 
-4.856038e+00 -1.138206e+02 2.126394e+03 
-2.171918e+01 -3.495840e+01 2.185524e+03 
-3.858232e+01 4.390379e+01 2.244655e+03 
-5.544546e+01 1.227660e+02 2.303785e+03 
-7.230859e+01 2.016282e+02 2.362915e+03 
-8.917173e+01 2.804904e+02 2.422046e+03 
3.082124e+01 -5.511319e+02 1.705103e+03 
1.395810e+01 -4.722697e+02 1.764234e+03 
-2.905039e+00 -3.934075e+02 1.823364e+03 
-1.976818e+01 -3.145453e+02 1.882494e+03 
-3.663132e+01 -2.356831e+02 1.941624e+03 
-5.349446e+01 -1.568209e+02 2.000755e+03 
-7.035760e+01 -7.795873e+01 2.059885e+03 
-8.722074e+01 9.034621e-01 2.119015e+03 
-1.040839e+02 7.976565e+01 2.178146e+03 
-1.209470e+02 1.586278e+02 2.237276e+03 
-1.378102e+02 2.374900e+02 2.296406e+03 
-1.546733e+02 3.163522e+02 2.355536e+03 
-3.468032e+01 -5.152700e+02 1.638594e+03 
-5.154346e+01 -4.364078e+02 1.697724e+03 
-6.840660e+01 -3.575456e+02 1.756855e+03 
-8.526974e+01 -2.786834e+02 1.815985e+03 
-1.021329e+02 -1.998212e+02 1.875115e+03 
-1.189960e+02 -1.209590e+02 1.934246e+03 
-1.358592e+02 -4.209686e+01 1.993376e+03 
-1.527223e+02 3.676533e+01 2.052506e+03 
-1.695854e+02 1.156275e+02 2.111636e+03 
-1.864486e+02 1.944897e+02 2.170767e+03 
-2.033117e+02 2.733519e+02 2.229897e+03 
-2.201748e+02 3.522141e+02 2.289027e+03 
-1.001819e+02 -4.794081e+02 1.572085e+03 
-1.170450e+02 -4.005459e+02 1.631215e+03 
-1.339082e+02 -3.216837e+02 1.690345e+03 
-1.507713e+02 -2.428216e+02 1.749476e+03 
-1.676344e+02 -1.639594e+02 1.808606e+03 
-1.844976e+02 -8.509718e+01 1.867736e+03 
-2.013607e+02 -6.234997e+00 1.926867e+03 
-2.182239e+02 7.262719e+01 1.985997e+03 
-2.350870e+02 1.514894e+02 2.045127e+03 
-2.519501e+02 2.303516e+02 2.104257e+03 
-2.688133e+02 3.092138e+02 2.163388e+03 
-2.856764e+02 3.880759e+02 2.222518e+03 
-1.656834e+02 -4.435463e+02 1.505576e+03 
-1.825466e+02 -3.646841e+02 1.564706e+03 
-1.994097e+02 -2.858219e+02 1.623836e+03 
-2.162729e+02 -2.069597e+02 1.682967e+03 
-2.331360e+02 -1.280975e+02 1.742097e+03 
-2.499991e+02 -4.923532e+01 1.801227e+03 
-2.668623e+02 2.962687e+01 1.860357e+03 
-2.837254e+02 1.084891e+02 1.919488e+03 
-3.005885e+02 1.873512e+02 1.978618e+03 
-3.174517e+02 2.662134e+02 2.037748e+03 
-3.343148e+02 3.450756e+02 2.096879e+03 
-3.511780e+02 4.239378e+02 2.156009e+03 
-2.311850e+02 -4.076844e+02 1.439067e+03 
-2.480481e+02 -3.288222e+02 1.498197e+03 
-2.649113e+02 -2.499600e+02 1.557327e+03 
-2.817744e+02 -1.710978e+02 1.616457e+03 
-2.986375e+02 -9.223564e+01 1.675588e+03 
-3.155007e+02 -1.337346e+01 1.734718e+03 
-3.323638e+02 6.548873e+01 1.793848e+03 
-3.492270e+02 1.443509e+02 1.852979e+03 
-3.660901e+02 2.232131e+02 1.912109e+03 
-3.829532e+02 3.020753e+02 1.971239e+03 
-3.998164e+02 3.809375e+02 2.030369e+03 
-4.166795e+02 4.597997e+02 2.089500e+03 
-2.966866e+02 -3.718225e+02 1.372557e+03 
-3.135497e+02 -2.929603e+02 1.431688e+03 
-3.304128e+02 -2.140982e+02 1.490818e+03 
-3.472760e+02 -1.352360e+02 1.549948e+03 
-3.641391e+02 -5.637378e+01 1.609078e+03 
-3.810022e+02 2.248841e+01 1.668209e+03 
-3.978654e+02 1.013506e+02 1.727339e+03 
-4.147285e+02 1.802128e+02 1.786469e+03 
-4.315917e+02 2.590750e+02 1.845600e+03 
-4.484548e+02 3.379372e+02 1.904730e+03 
-4.653179e+02 4.167994e+02 1.963860e+03 
-4.821811e+02 4.956615e+02 2.022990e+03 
