8.706586e+02 -1.484465e+02 1.451296e+03 
8.555215e+02 -7.376039e+01 1.516049e+03 
8.403844e+02 9.256894e-01 1.580801e+03 
8.252473e+02 7.561177e+01 1.645553e+03 
8.101102e+02 1.502979e+02 1.710306e+03 
7.949732e+02 2.249839e+02 1.775058e+03 
7.798361e+02 2.996700e+02 1.839810e+03 
7.646990e+02 3.743561e+02 1.904562e+03 
7.495619e+02 4.490422e+02 1.969315e+03 
7.344248e+02 5.237283e+02 2.034067e+03 
7.192877e+02 5.984143e+02 2.098819e+03 
7.041506e+02 6.731004e+02 2.163572e+03 
7.785419e+02 -1.828643e+02 1.469460e+03 
7.634048e+02 -1.081783e+02 1.534213e+03 
7.482678e+02 -3.349217e+01 1.598965e+03 
7.331307e+02 4.119391e+01 1.663717e+03 
7.179936e+02 1.158800e+02 1.728470e+03 
7.028565e+02 1.905661e+02 1.793222e+03 
6.877194e+02 2.652522e+02 1.857974e+03 
6.725823e+02 3.399382e+02 1.922726e+03 
6.574452e+02 4.146243e+02 1.987479e+03 
6.423081e+02 4.893104e+02 2.052231e+03 
6.271710e+02 5.639965e+02 2.116983e+03 
6.120339e+02 6.386826e+02 2.181735e+03 
6.864253e+02 -2.172822e+02 1.487624e+03 
6.712882e+02 -1.425961e+02 1.552377e+03 
6.561511e+02 -6.791003e+01 1.617129e+03 
6.410140e+02 6.776049e+00 1.681881e+03 
6.258769e+02 8.146213e+01 1.746633e+03 
6.107398e+02 1.561482e+02 1.811386e+03 
5.956027e+02 2.308343e+02 1.876138e+03 
5.804656e+02 3.055204e+02 1.940890e+03 
5.653285e+02 3.802065e+02 2.005643e+03 
5.501914e+02 4.548925e+02 2.070395e+03 
5.350543e+02 5.295786e+02 2.135147e+03 
5.199173e+02 6.042647e+02 2.199899e+03 
5.943086e+02 -2.517001e+02 1.505788e+03 
5.791715e+02 -1.770140e+02 1.570541e+03 
5.640344e+02 -1.023279e+02 1.635293e+03 
5.488973e+02 -2.764181e+01 1.700045e+03 
5.337602e+02 4.704427e+01 1.764797e+03 
5.186231e+02 1.217304e+02 1.829550e+03 
5.034860e+02 1.964164e+02 1.894302e+03 
4.883489e+02 2.711025e+02 1.959054e+03 
4.732118e+02 3.457886e+02 2.023807e+03 
4.580748e+02 4.204747e+02 2.088559e+03 
4.429377e+02 4.951608e+02 2.153311e+03 
4.278006e+02 5.698468e+02 2.218063e+03 
5.021919e+02 -2.861179e+02 1.523952e+03 
4.870548e+02 -2.114318e+02 1.588705e+03 
4.719177e+02 -1.367458e+02 1.653457e+03 
4.567806e+02 -6.205967e+01 1.718209e+03 
4.416435e+02 1.262641e+01 1.782961e+03 
4.265064e+02 8.731249e+01 1.847714e+03 
4.113694e+02 1.619986e+02 1.912466e+03 
3.962323e+02 2.366847e+02 1.977218e+03 
3.810952e+02 3.113707e+02 2.041970e+03 
3.659581e+02 3.860568e+02 2.106723e+03 
3.508210e+02 4.607429e+02 2.171475e+03 
3.356839e+02 5.354290e+02 2.236227e+03 
4.100752e+02 -3.205358e+02 1.542116e+03 
3.949381e+02 -2.458497e+02 1.606868e+03 
3.798010e+02 -1.711636e+02 1.671621e+03 
3.646640e+02 -9.647754e+01 1.736373e+03 
3.495269e+02 -2.179145e+01 1.801125e+03 
3.343898e+02 5.289463e+01 1.865878e+03 
3.192527e+02 1.275807e+02 1.930630e+03 
3.041156e+02 2.022668e+02 1.995382e+03 
2.889785e+02 2.769529e+02 2.060134e+03 
2.738414e+02 3.516390e+02 2.124887e+03 
2.587043e+02 4.263250e+02 2.189639e+03 
2.435672e+02 5.010111e+02 2.254391e+03 
3.179586e+02 -3.549536e+02 1.560280e+03 
3.028215e+02 -2.802676e+02 1.625032e+03 
2.876844e+02 -2.055815e+02 1.689785e+03 
2.725473e+02 -1.308954e+02 1.754537e+03 
2.574102e+02 -5.620932e+01 1.819289e+03 
2.422731e+02 1.847677e+01 1.884042e+03 
2.271360e+02 9.316285e+01 1.948794e+03 
2.119989e+02 1.678489e+02 2.013546e+03 
1.968618e+02 2.425350e+02 2.078298e+03 
1.817247e+02 3.172211e+02 2.143051e+03 
1.665876e+02 3.919072e+02 2.207803e+03 
1.514505e+02 4.665933e+02 2.272555e+03 
2.258419e+02 -3.893715e+02 1.578444e+03 
2.107048e+02 -3.146854e+02 1.643196e+03 
1.955677e+02 -2.399993e+02 1.707949e+03 
1.804306e+02 -1.653133e+02 1.772701e+03 
1.652935e+02 -9.062718e+01 1.837453e+03 
1.501564e+02 -1.594109e+01 1.902205e+03 
1.350193e+02 5.874499e+01 1.966958e+03 
1.198822e+02 1.334311e+02 2.031710e+03 
1.047451e+02 2.081172e+02 2.096462e+03 
8.960805e+01 2.828032e+02 2.161215e+03 
7.447096e+01 3.574893e+02 2.225967e+03 
5.933387e+01 4.321754e+02 2.290719e+03 
1.337252e+02 -4.237894e+02 1.596608e+03 
1.185881e+02 -3.491033e+02 1.661360e+03 
1.034510e+02 -2.744172e+02 1.726113e+03 
8.831393e+01 -1.997311e+02 1.790865e+03 
7.317684e+01 -1.250450e+02 1.855617e+03 
5.803975e+01 -5.035896e+01 1.920369e+03 
4.290265e+01 2.432713e+01 1.985122e+03 
2.776556e+01 9.901321e+01 2.049874e+03 
1.262847e+01 1.736993e+02 2.114626e+03 
-2.508623e+00 2.483854e+02 2.179379e+03 
-1.764571e+01 3.230715e+02 2.244131e+03 
-3.278281e+01 3.977575e+02 2.308883e+03 
4.160853e+01 -4.582072e+02 1.614772e+03 
2.647144e+01 -3.835211e+02 1.679524e+03 
1.133434e+01 -3.088351e+02 1.744276e+03 
-3.802747e+00 -2.341490e+02 1.809029e+03 
-1.893984e+01 -1.594629e+02 1.873781e+03 
-3.407693e+01 -8.477682e+01 1.938533e+03 
-4.921402e+01 -1.009074e+01 2.003286e+03 
-6.435111e+01 6.459535e+01 2.068038e+03 
-7.948821e+01 1.392814e+02 2.132790e+03 
-9.462530e+01 2.139675e+02 2.197542e+03 
-1.097624e+02 2.886536e+02 2.262295e+03 
-1.248995e+02 3.633397e+02 2.327047e+03 
-5.050815e+01 -4.926251e+02 1.632936e+03 
-6.564524e+01 -4.179390e+02 1.697688e+03 
-8.078233e+01 -3.432529e+02 1.762440e+03 
-9.591942e+01 -2.685668e+02 1.827193e+03 
-1.110565e+02 -1.938808e+02 1.891945e+03 
-1.261936e+02 -1.191947e+02 1.956697e+03 
-1.413307e+02 -4.450860e+01 2.021450e+03 
-1.564678e+02 3.017749e+01 2.086202e+03 
-1.716049e+02 1.048636e+02 2.150954e+03 
-1.867420e+02 1.795496e+02 2.215706e+03 
-2.018791e+02 2.542357e+02 2.280459e+03 
-2.170162e+02 3.289218e+02 2.345211e+03 
-1.426248e+02 -5.270430e+02 1.651100e+03 
-1.577619e+02 -4.523569e+02 1.715852e+03 
-1.728990e+02 -3.776708e+02 1.780604e+03 
-1.880361e+02 -3.029847e+02 1.845357e+03 
-2.031732e+02 -2.282986e+02 1.910109e+03 
-2.183103e+02 -1.536125e+02 1.974861e+03 
-2.334474e+02 -7.892646e+01 2.039613e+03 
-2.485845e+02 -4.240376e+00 2.104366e+03 
-2.637216e+02 7.044571e+01 2.169118e+03 
-2.788587e+02 1.451318e+02 2.233870e+03 
-2.939957e+02 2.198179e+02 2.298623e+03 
-3.091328e+02 2.945040e+02 2.363375e+03 
-2.347415e+02 -5.614608e+02 1.669264e+03 
-2.498786e+02 -4.867747e+02 1.734016e+03 
-2.650157e+02 -4.120886e+02 1.798768e+03 
-2.801528e+02 -3.374026e+02 1.863521e+03 
-2.952899e+02 -2.627165e+02 1.928273e+03 
-3.104270e+02 -1.880304e+02 1.993025e+03 
-3.255641e+02 -1.133443e+02 2.057777e+03 
-3.407011e+02 -3.865824e+01 2.122530e+03 
-3.558382e+02 3.602784e+01 2.187282e+03 
-3.709753e+02 1.107139e+02 2.252034e+03 
-3.861124e+02 1.854000e+02 2.316787e+03 
-4.012495e+02 2.600861e+02 2.381539e+03 
