9.780500e+02 -4.701161e+02 2.070622e+03 
9.592950e+02 -3.876716e+02 2.124018e+03 
9.405399e+02 -3.052271e+02 2.177415e+03 
9.217849e+02 -2.227827e+02 2.230811e+03 
9.030298e+02 -1.403382e+02 2.284207e+03 
8.842748e+02 -5.789368e+01 2.337603e+03 
8.655197e+02 2.455080e+01 2.390999e+03 
8.467647e+02 1.069953e+02 2.444396e+03 
8.280096e+02 1.894398e+02 2.497792e+03 
8.092546e+02 2.718843e+02 2.551188e+03 
7.904995e+02 3.543287e+02 2.604584e+03 
7.717445e+02 4.367732e+02 2.657980e+03 
8.802231e+02 -4.906864e+02 2.068022e+03 
8.614681e+02 -4.082419e+02 2.121418e+03 
8.427130e+02 -3.257975e+02 2.174814e+03 
8.239580e+02 -2.433530e+02 2.228211e+03 
8.052029e+02 -1.609085e+02 2.281607e+03 
7.864479e+02 -7.846400e+01 2.335003e+03 
7.676928e+02 3.980485e+00 2.388399e+03 
7.489378e+02 8.642497e+01 2.441795e+03 
7.301827e+02 1.688695e+02 2.495192e+03 
7.114277e+02 2.513139e+02 2.548588e+03 
6.926726e+02 3.337584e+02 2.601984e+03 
6.739176e+02 4.162029e+02 2.655380e+03 
7.823963e+02 -5.112567e+02 2.065422e+03 
7.636412e+02 -4.288123e+02 2.118818e+03 
7.448861e+02 -3.463678e+02 2.172214e+03 
7.261311e+02 -2.639233e+02 2.225610e+03 
7.073760e+02 -1.814788e+02 2.279007e+03 
6.886210e+02 -9.903432e+01 2.332403e+03 
6.698659e+02 -1.658983e+01 2.385799e+03 
6.511109e+02 6.585465e+01 2.439195e+03 
6.323558e+02 1.482991e+02 2.492592e+03 
6.136008e+02 2.307436e+02 2.545988e+03 
5.948457e+02 3.131881e+02 2.599384e+03 
5.760907e+02 3.956326e+02 2.652780e+03 
6.845694e+02 -5.318271e+02 2.062822e+03 
6.658143e+02 -4.493826e+02 2.116218e+03 
6.470593e+02 -3.669381e+02 2.169614e+03 
6.283042e+02 -2.844936e+02 2.223010e+03 
6.095492e+02 -2.020491e+02 2.276407e+03 
5.907941e+02 -1.196046e+02 2.329803e+03 
5.720391e+02 -3.716015e+01 2.383199e+03 
5.532840e+02 4.528433e+01 2.436595e+03 
5.345290e+02 1.277288e+02 2.489991e+03 
5.157739e+02 2.101733e+02 2.543388e+03 
4.970189e+02 2.926178e+02 2.596784e+03 
4.782638e+02 3.750623e+02 2.650180e+03 
5.867425e+02 -5.523974e+02 2.060222e+03 
5.679874e+02 -4.699529e+02 2.113618e+03 
5.492324e+02 -3.875084e+02 2.167014e+03 
5.304773e+02 -3.050639e+02 2.220410e+03 
5.117223e+02 -2.226194e+02 2.273806e+03 
4.929672e+02 -1.401750e+02 2.327203e+03 
4.742122e+02 -5.773047e+01 2.380599e+03 
4.554571e+02 2.471402e+01 2.433995e+03 
4.367021e+02 1.071585e+02 2.487391e+03 
4.179470e+02 1.896030e+02 2.540787e+03 
3.991920e+02 2.720475e+02 2.594184e+03 
3.804369e+02 3.544920e+02 2.647580e+03 
4.889156e+02 -5.729677e+02 2.057621e+03 
4.701605e+02 -4.905232e+02 2.111018e+03 
4.514055e+02 -4.080787e+02 2.164414e+03 
4.326504e+02 -3.256342e+02 2.217810e+03 
4.138954e+02 -2.431898e+02 2.271206e+03 
3.951403e+02 -1.607453e+02 2.324602e+03 
3.763853e+02 -7.830079e+01 2.377999e+03 
3.576302e+02 4.143699e+00 2.431395e+03 
3.388752e+02 8.658818e+01 2.484791e+03 
3.201201e+02 1.690327e+02 2.538187e+03 
3.013651e+02 2.514772e+02 2.591583e+03 
2.826100e+02 3.339216e+02 2.644980e+03 
3.910887e+02 -5.935380e+02 2.055021e+03 
3.723336e+02 -5.110935e+02 2.108417e+03 
3.535786e+02 -4.286490e+02 2.161814e+03 
3.348235e+02 -3.462046e+02 2.215210e+03 
3.160685e+02 -2.637601e+02 2.268606e+03 
2.973134e+02 -1.813156e+02 2.322002e+03 
2.785584e+02 -9.887110e+01 2.375398e+03 
2.598033e+02 -1.642662e+01 2.428795e+03 
2.410483e+02 6.601787e+01 2.482191e+03 
2.222932e+02 1.484624e+02 2.535587e+03 
2.035382e+02 2.309068e+02 2.588983e+03 
1.847831e+02 3.133513e+02 2.642379e+03 
2.932618e+02 -6.141083e+02 2.052421e+03 
2.745067e+02 -5.316638e+02 2.105817e+03 
2.557517e+02 -4.492194e+02 2.159213e+03 
2.369966e+02 -3.667749e+02 2.212610e+03 
2.182416e+02 -2.843304e+02 2.266006e+03 
1.994865e+02 -2.018859e+02 2.319402e+03 
1.807315e+02 -1.194414e+02 2.372798e+03 
1.619764e+02 -3.699694e+01 2.426194e+03 
1.432214e+02 4.544755e+01 2.479591e+03 
1.244663e+02 1.278920e+02 2.532987e+03 
1.057113e+02 2.103365e+02 2.586383e+03 
8.695623e+01 2.927810e+02 2.639779e+03 
1.954349e+02 -6.346786e+02 2.049821e+03 
1.766798e+02 -5.522342e+02 2.103217e+03 
1.579248e+02 -4.697897e+02 2.156613e+03 
1.391697e+02 -3.873452e+02 2.210009e+03 
1.204147e+02 -3.049007e+02 2.263406e+03 
1.016596e+02 -2.224562e+02 2.316802e+03 
8.290458e+01 -1.400117e+02 2.370198e+03 
6.414953e+01 -5.756725e+01 2.423594e+03 
4.539448e+01 2.487723e+01 2.476991e+03 
2.663943e+01 1.073217e+02 2.530387e+03 
7.884382e+00 1.897662e+02 2.583783e+03 
-1.087067e+01 2.722107e+02 2.637179e+03 
9.760799e+01 -6.552490e+02 2.047221e+03 
7.885294e+01 -5.728045e+02 2.100617e+03 
6.009789e+01 -4.903600e+02 2.154013e+03 
4.134284e+01 -4.079155e+02 2.207409e+03 
2.258779e+01 -3.254710e+02 2.260806e+03 
3.832741e+00 -2.430265e+02 2.314202e+03 
-1.492231e+01 -1.605821e+02 2.367598e+03 
-3.367736e+01 -7.813757e+01 2.420994e+03 
-5.243241e+01 4.306912e+00 2.474390e+03 
-7.118746e+01 8.675140e+01 2.527787e+03 
-8.994251e+01 1.691959e+02 2.581183e+03 
-1.086976e+02 2.516404e+02 2.634579e+03 
-2.189003e-01 -6.758193e+02 2.044621e+03 
-1.897395e+01 -5.933748e+02 2.098017e+03 
-3.772900e+01 -5.109303e+02 2.151413e+03 
-5.648405e+01 -4.284858e+02 2.204809e+03 
-7.523910e+01 -3.460413e+02 2.258205e+03 
-9.399415e+01 -2.635969e+02 2.311602e+03 
-1.127492e+02 -1.811524e+02 2.364998e+03 
-1.315043e+02 -9.870789e+01 2.418394e+03 
-1.502593e+02 -1.626341e+01 2.471790e+03 
-1.690144e+02 6.618108e+01 2.525186e+03 
-1.877694e+02 1.486256e+02 2.578583e+03 
-2.065245e+02 2.310700e+02 2.631979e+03 
-9.804579e+01 -6.963896e+02 2.042020e+03 
-1.168008e+02 -6.139451e+02 2.095417e+03 
-1.355559e+02 -5.315006e+02 2.148813e+03 
-1.543109e+02 -4.490561e+02 2.202209e+03 
-1.730660e+02 -3.666117e+02 2.255605e+03 
-1.918210e+02 -2.841672e+02 2.309001e+03 
-2.105761e+02 -2.017227e+02 2.362398e+03 
-2.293311e+02 -1.192782e+02 2.415794e+03 
-2.480862e+02 -3.683372e+01 2.469190e+03 
-2.668412e+02 4.561076e+01 2.522586e+03 
-2.855963e+02 1.280552e+02 2.575982e+03 
-3.043514e+02 2.104997e+02 2.629379e+03 
-1.958727e+02 -7.169599e+02 2.039420e+03 
-2.146277e+02 -6.345154e+02 2.092816e+03 
-2.333828e+02 -5.520710e+02 2.146213e+03 
-2.521378e+02 -4.696265e+02 2.199609e+03 
-2.708929e+02 -3.871820e+02 2.253005e+03 
-2.896479e+02 -3.047375e+02 2.306401e+03 
-3.084030e+02 -2.222930e+02 2.359797e+03 
-3.271580e+02 -1.398485e+02 2.413194e+03 
-3.459131e+02 -5.740404e+01 2.466590e+03 
-3.646681e+02 2.504044e+01 2.519986e+03 
-3.834232e+02 1.074849e+02 2.573382e+03 
-4.021782e+02 1.899294e+02 2.626778e+03 
