9.493306e+02 -6.602537e+02 2.337687e+03 
9.307865e+02 -5.792612e+02 2.393332e+03 
9.122424e+02 -4.982687e+02 2.448977e+03 
8.936983e+02 -4.172762e+02 2.504622e+03 
8.751543e+02 -3.362837e+02 2.560266e+03 
8.566102e+02 -2.552913e+02 2.615911e+03 
8.380661e+02 -1.742988e+02 2.671556e+03 
8.195220e+02 -9.330629e+01 2.727201e+03 
8.009779e+02 -1.231381e+01 2.782845e+03 
7.824339e+02 6.867868e+01 2.838490e+03 
7.638898e+02 1.496712e+02 2.894135e+03 
7.453457e+02 2.306636e+02 2.949779e+03 
8.521156e+02 -6.836327e+02 2.339319e+03 
8.335715e+02 -6.026402e+02 2.394963e+03 
8.150274e+02 -5.216477e+02 2.450608e+03 
7.964833e+02 -4.406553e+02 2.506253e+03 
7.779392e+02 -3.596628e+02 2.561897e+03 
7.593952e+02 -2.786703e+02 2.617542e+03 
7.408511e+02 -1.976778e+02 2.673187e+03 
7.223070e+02 -1.166853e+02 2.728832e+03 
7.037629e+02 -3.569284e+01 2.784476e+03 
6.852188e+02 4.529964e+01 2.840121e+03 
6.666748e+02 1.262921e+02 2.895766e+03 
6.481307e+02 2.072846e+02 2.951411e+03 
7.549005e+02 -7.070117e+02 2.340950e+03 
7.363565e+02 -6.260193e+02 2.396594e+03 
7.178124e+02 -5.450268e+02 2.452239e+03 
6.992683e+02 -4.640343e+02 2.507884e+03 
6.807242e+02 -3.830418e+02 2.563529e+03 
6.621801e+02 -3.020493e+02 2.619173e+03 
6.436361e+02 -2.210568e+02 2.674818e+03 
6.250920e+02 -1.400644e+02 2.730463e+03 
6.065479e+02 -5.907188e+01 2.786107e+03 
5.880038e+02 2.192060e+01 2.841752e+03 
5.694597e+02 1.029131e+02 2.897397e+03 
5.509157e+02 1.839056e+02 2.953042e+03 
6.576855e+02 -7.303908e+02 2.342581e+03 
6.391414e+02 -6.493983e+02 2.398226e+03 
6.205974e+02 -5.684058e+02 2.453870e+03 
6.020533e+02 -4.874133e+02 2.509515e+03 
5.835092e+02 -4.064208e+02 2.565160e+03 
5.649651e+02 -3.254284e+02 2.620804e+03 
5.464210e+02 -2.444359e+02 2.676449e+03 
5.278770e+02 -1.634434e+02 2.732094e+03 
5.093329e+02 -8.245092e+01 2.787739e+03 
4.907888e+02 -1.458436e+00 2.843383e+03 
4.722447e+02 7.953405e+01 2.899028e+03 
4.537006e+02 1.605265e+02 2.954673e+03 
5.604705e+02 -7.537698e+02 2.344212e+03 
5.419264e+02 -6.727773e+02 2.399857e+03 
5.233823e+02 -5.917848e+02 2.455501e+03 
5.048383e+02 -5.107924e+02 2.511146e+03 
4.862942e+02 -4.297999e+02 2.566791e+03 
4.677501e+02 -3.488074e+02 2.622436e+03 
4.492060e+02 -2.678149e+02 2.678080e+03 
4.306619e+02 -1.868224e+02 2.733725e+03 
4.121179e+02 -1.058300e+02 2.789370e+03 
3.935738e+02 -2.483747e+01 2.845014e+03 
3.750297e+02 5.615501e+01 2.900659e+03 
3.564856e+02 1.371475e+02 2.956304e+03 
4.632555e+02 -7.771488e+02 2.345843e+03 
4.447114e+02 -6.961564e+02 2.401488e+03 
4.261673e+02 -6.151639e+02 2.457133e+03 
4.076232e+02 -5.341714e+02 2.512777e+03 
3.890792e+02 -4.531789e+02 2.568422e+03 
3.705351e+02 -3.721864e+02 2.624067e+03 
3.519910e+02 -2.911940e+02 2.679711e+03 
3.334469e+02 -2.102015e+02 2.735356e+03 
3.149028e+02 -1.292090e+02 2.791001e+03 
2.963588e+02 -4.821651e+01 2.846646e+03 
2.778147e+02 3.277597e+01 2.902290e+03 
2.592706e+02 1.137685e+02 2.957935e+03 
3.660405e+02 -8.005279e+02 2.347474e+03 
3.474964e+02 -7.195354e+02 2.403119e+03 
3.289523e+02 -6.385429e+02 2.458764e+03 
3.104082e+02 -5.575504e+02 2.514408e+03 
2.918641e+02 -4.765580e+02 2.570053e+03 
2.733201e+02 -3.955655e+02 2.625698e+03 
2.547760e+02 -3.145730e+02 2.681343e+03 
2.362319e+02 -2.335805e+02 2.736987e+03 
2.176878e+02 -1.525880e+02 2.792632e+03 
1.991437e+02 -7.159555e+01 2.848277e+03 
1.805997e+02 9.396934e+00 2.903921e+03 
1.620556e+02 9.038942e+01 2.959566e+03 
2.688254e+02 -8.239069e+02 2.349105e+03 
2.502814e+02 -7.429144e+02 2.404750e+03 
2.317373e+02 -6.619220e+02 2.460395e+03 
2.131932e+02 -5.809295e+02 2.516039e+03 
1.946491e+02 -4.999370e+02 2.571684e+03 
1.761050e+02 -4.189445e+02 2.627329e+03 
1.575610e+02 -3.379520e+02 2.682974e+03 
1.390169e+02 -2.569595e+02 2.738618e+03 
1.204728e+02 -1.759671e+02 2.794263e+03 
1.019287e+02 -9.497459e+01 2.849908e+03 
8.338464e+01 -1.398210e+01 2.905553e+03 
6.484056e+01 6.701038e+01 2.961197e+03 
1.716104e+02 -8.472860e+02 2.350736e+03 
1.530663e+02 -7.662935e+02 2.406381e+03 
1.345223e+02 -6.853010e+02 2.462026e+03 
1.159782e+02 -6.043085e+02 2.517671e+03 
9.743410e+01 -5.233160e+02 2.573315e+03 
7.889002e+01 -4.423236e+02 2.628960e+03 
6.034594e+01 -3.613311e+02 2.684605e+03 
4.180186e+01 -2.803386e+02 2.740249e+03 
2.325778e+01 -1.993461e+02 2.795894e+03 
4.713699e+00 -1.183536e+02 2.851539e+03 
-1.383038e+01 -3.736114e+01 2.907184e+03 
-3.237446e+01 4.363134e+01 2.962828e+03 
7.439539e+01 -8.706650e+02 2.352368e+03 
5.585131e+01 -7.896725e+02 2.408012e+03 
3.730723e+01 -7.086800e+02 2.463657e+03 
1.876315e+01 -6.276876e+02 2.519302e+03 
2.190753e-01 -5.466951e+02 2.574946e+03 
-1.832500e+01 -4.657026e+02 2.630591e+03 
-3.686908e+01 -3.847101e+02 2.686236e+03 
-5.541316e+01 -3.037176e+02 2.741881e+03 
-7.395724e+01 -2.227251e+02 2.797525e+03 
-9.250132e+01 -1.417327e+02 2.853170e+03 
-1.110454e+02 -6.074018e+01 2.908815e+03 
-1.295895e+02 2.025230e+01 2.964459e+03 
-2.281963e+01 -8.940440e+02 2.353999e+03 
-4.136371e+01 -8.130516e+02 2.409643e+03 
-5.990779e+01 -7.320591e+02 2.465288e+03 
-7.845187e+01 -6.510666e+02 2.520933e+03 
-9.699594e+01 -5.700741e+02 2.576578e+03 
-1.155400e+02 -4.890816e+02 2.632222e+03 
-1.340841e+02 -4.080891e+02 2.687867e+03 
-1.526282e+02 -3.270967e+02 2.743512e+03 
-1.711723e+02 -2.461042e+02 2.799156e+03 
-1.897163e+02 -1.651117e+02 2.854801e+03 
-2.082604e+02 -8.411921e+01 2.910446e+03 
-2.268045e+02 -3.126733e+00 2.966091e+03 
-1.200346e+02 -9.174231e+02 2.355630e+03 
-1.385787e+02 -8.364306e+02 2.411274e+03 
-1.571228e+02 -7.554381e+02 2.466919e+03 
-1.756669e+02 -6.744456e+02 2.522564e+03 
-1.942110e+02 -5.934531e+02 2.578209e+03 
-2.127550e+02 -5.124607e+02 2.633853e+03 
-2.312991e+02 -4.314682e+02 2.689498e+03 
-2.498432e+02 -3.504757e+02 2.745143e+03 
-2.683873e+02 -2.694832e+02 2.800788e+03 
-2.869314e+02 -1.884907e+02 2.856432e+03 
-3.054754e+02 -1.074983e+02 2.912077e+03 
-3.240195e+02 -2.650577e+01 2.967722e+03 
-2.172497e+02 -9.408021e+02 2.357261e+03 
-2.357937e+02 -8.598096e+02 2.412906e+03 
-2.543378e+02 -7.788171e+02 2.468550e+03 
-2.728819e+02 -6.978247e+02 2.524195e+03 
-2.914260e+02 -6.168322e+02 2.579840e+03 
-3.099701e+02 -5.358397e+02 2.635485e+03 
-3.285141e+02 -4.548472e+02 2.691129e+03 
-3.470582e+02 -3.738547e+02 2.746774e+03 
-3.656023e+02 -2.928623e+02 2.802419e+03 
-3.841464e+02 -2.118698e+02 2.858063e+03 
-4.026905e+02 -1.308773e+02 2.913708e+03 
-4.212345e+02 -4.988481e+01 2.969353e+03 
