1.104570e+03 -5.190834e+02 2.046214e+03 
1.068486e+03 -4.378909e+02 2.000325e+03 
1.032402e+03 -3.566983e+02 1.954437e+03 
9.963183e+02 -2.755058e+02 1.908549e+03 
9.602345e+02 -1.943133e+02 1.862661e+03 
9.241507e+02 -1.131207e+02 1.816772e+03 
8.880670e+02 -3.192818e+01 1.770884e+03 
8.519832e+02 4.926436e+01 1.724996e+03 
8.158995e+02 1.304569e+02 1.679107e+03 
7.798157e+02 2.116494e+02 1.633219e+03 
7.437319e+02 2.928420e+02 1.587331e+03 
7.076482e+02 3.740345e+02 1.541443e+03 
1.017257e+03 -5.311995e+02 2.093433e+03 
9.811732e+02 -4.500070e+02 2.047545e+03 
9.450894e+02 -3.688144e+02 2.001657e+03 
9.090056e+02 -2.876219e+02 1.955769e+03 
8.729219e+02 -2.064294e+02 1.909880e+03 
8.368381e+02 -1.252368e+02 1.863992e+03 
8.007543e+02 -4.404428e+01 1.818104e+03 
7.646706e+02 3.714826e+01 1.772215e+03 
7.285868e+02 1.183408e+02 1.726327e+03 
6.925031e+02 1.995333e+02 1.680439e+03 
6.564193e+02 2.807259e+02 1.634551e+03 
6.203355e+02 3.619184e+02 1.588662e+03 
9.299443e+02 -5.433156e+02 2.140653e+03 
8.938605e+02 -4.621231e+02 2.094765e+03 
8.577768e+02 -3.809305e+02 2.048877e+03 
8.216930e+02 -2.997380e+02 2.002988e+03 
7.856092e+02 -2.185454e+02 1.957100e+03 
7.495255e+02 -1.373529e+02 1.911212e+03 
7.134417e+02 -5.616037e+01 1.865323e+03 
6.773579e+02 2.503217e+01 1.819435e+03 
6.412742e+02 1.062247e+02 1.773547e+03 
6.051904e+02 1.874172e+02 1.727659e+03 
5.691067e+02 2.686098e+02 1.681770e+03 
5.330229e+02 3.498023e+02 1.635882e+03 
8.426316e+02 -5.554317e+02 2.187873e+03 
8.065479e+02 -4.742392e+02 2.141985e+03 
7.704641e+02 -3.930466e+02 2.096096e+03 
7.343804e+02 -3.118541e+02 2.050208e+03 
6.982966e+02 -2.306615e+02 2.004320e+03 
6.622128e+02 -1.494690e+02 1.958431e+03 
6.261291e+02 -6.827647e+01 1.912543e+03 
5.900453e+02 1.291607e+01 1.866655e+03 
5.539615e+02 9.410861e+01 1.820767e+03 
5.178778e+02 1.753012e+02 1.774878e+03 
4.817940e+02 2.564937e+02 1.728990e+03 
4.457102e+02 3.376862e+02 1.683102e+03 
7.553190e+02 -5.675478e+02 2.235093e+03 
7.192352e+02 -4.863553e+02 2.189204e+03 
6.831515e+02 -4.051627e+02 2.143316e+03 
6.470677e+02 -3.239702e+02 2.097428e+03 
6.109840e+02 -2.427776e+02 2.051539e+03 
5.749002e+02 -1.615851e+02 2.005651e+03 
5.388164e+02 -8.039256e+01 1.959763e+03 
5.027327e+02 7.999773e-01 1.913875e+03 
4.666489e+02 8.199252e+01 1.867986e+03 
4.305651e+02 1.631851e+02 1.822098e+03 
3.944814e+02 2.443776e+02 1.776210e+03 
3.583976e+02 3.255701e+02 1.730322e+03 
6.680064e+02 -5.796639e+02 2.282312e+03 
6.319226e+02 -4.984714e+02 2.236424e+03 
5.958388e+02 -4.172788e+02 2.190536e+03 
5.597551e+02 -3.360863e+02 2.144647e+03 
5.236713e+02 -2.548937e+02 2.098759e+03 
4.875876e+02 -1.737012e+02 2.052871e+03 
4.515038e+02 -9.250866e+01 2.006983e+03 
4.154200e+02 -1.131612e+01 1.961094e+03 
3.793363e+02 6.987642e+01 1.915206e+03 
3.432525e+02 1.510690e+02 1.869318e+03 
3.071687e+02 2.322615e+02 1.823430e+03 
2.710850e+02 3.134540e+02 1.777541e+03 
5.806937e+02 -5.917800e+02 2.329532e+03 
5.446100e+02 -5.105874e+02 2.283644e+03 
5.085262e+02 -4.293949e+02 2.237755e+03 
4.724424e+02 -3.482024e+02 2.191867e+03 
4.363587e+02 -2.670098e+02 2.145979e+03 
4.002749e+02 -1.858173e+02 2.100091e+03 
3.641911e+02 -1.046248e+02 2.054202e+03 
3.281074e+02 -2.343221e+01 2.008314e+03 
2.920236e+02 5.776033e+01 1.962426e+03 
2.559399e+02 1.389529e+02 1.916538e+03 
2.198561e+02 2.201454e+02 1.870649e+03 
1.837723e+02 3.013379e+02 1.824761e+03 
4.933811e+02 -6.038961e+02 2.376752e+03 
4.572973e+02 -5.227035e+02 2.330863e+03 
4.212136e+02 -4.415110e+02 2.284975e+03 
3.851298e+02 -3.603185e+02 2.239087e+03 
3.490460e+02 -2.791259e+02 2.193199e+03 
3.129623e+02 -1.979334e+02 2.147310e+03 
2.768785e+02 -1.167408e+02 2.101422e+03 
2.407947e+02 -3.554831e+01 2.055534e+03 
2.047110e+02 4.564423e+01 2.009646e+03 
1.686272e+02 1.268368e+02 1.963757e+03 
1.325435e+02 2.080293e+02 1.917869e+03 
9.645969e+01 2.892218e+02 1.871981e+03 
4.060684e+02 -6.160122e+02 2.423971e+03 
3.699847e+02 -5.348196e+02 2.378083e+03 
3.339009e+02 -4.536271e+02 2.332195e+03 
2.978172e+02 -3.724346e+02 2.286307e+03 
2.617334e+02 -2.912420e+02 2.240418e+03 
2.256496e+02 -2.100495e+02 2.194530e+03 
1.895659e+02 -1.288569e+02 2.148642e+03 
1.534821e+02 -4.766440e+01 2.102754e+03 
1.173983e+02 3.352814e+01 2.056865e+03 
8.131458e+01 1.147207e+02 2.010977e+03 
4.523082e+01 1.959132e+02 1.965089e+03 
9.147054e+00 2.771058e+02 1.919200e+03 
3.187558e+02 -6.281283e+02 2.471191e+03 
2.826720e+02 -5.469357e+02 2.425303e+03 
2.465883e+02 -4.657432e+02 2.379415e+03 
2.105045e+02 -3.845507e+02 2.333526e+03 
1.744208e+02 -3.033581e+02 2.287638e+03 
1.383370e+02 -2.221656e+02 2.241750e+03 
1.022532e+02 -1.409730e+02 2.195862e+03 
6.616947e+01 -5.978050e+01 2.149973e+03 
3.008570e+01 2.141204e+01 2.104085e+03 
-5.998059e+00 1.026046e+02 2.058197e+03 
-4.208182e+01 1.837971e+02 2.012308e+03 
-7.816559e+01 2.649897e+02 1.966420e+03 
2.314432e+02 -6.402444e+02 2.518411e+03 
1.953594e+02 -5.590518e+02 2.472523e+03 
1.592756e+02 -4.778593e+02 2.426634e+03 
1.231919e+02 -3.966667e+02 2.380746e+03 
8.710812e+01 -3.154742e+02 2.334858e+03 
5.102436e+01 -2.342817e+02 2.288970e+03 
1.494059e+01 -1.530891e+02 2.243081e+03 
-2.114317e+01 -7.189659e+01 2.197193e+03 
-5.722693e+01 9.295946e+00 2.151305e+03 
-9.331070e+01 9.048848e+01 2.105417e+03 
-1.293945e+02 1.716810e+02 2.059528e+03 
-1.654782e+02 2.528736e+02 2.013640e+03 
1.441305e+02 -6.523605e+02 2.565631e+03 
1.080468e+02 -5.711679e+02 2.519742e+03 
7.196301e+01 -4.899754e+02 2.473854e+03 
3.587924e+01 -4.087828e+02 2.427966e+03 
-2.045205e-01 -3.275903e+02 2.382078e+03 
-3.628828e+01 -2.463978e+02 2.336189e+03 
-7.237205e+01 -1.652052e+02 2.290301e+03 
-1.084558e+02 -8.401269e+01 2.244413e+03 
-1.445396e+02 -2.820150e+00 2.198525e+03 
-1.806233e+02 7.837239e+01 2.152636e+03 
-2.167071e+02 1.595649e+02 2.106748e+03 
-2.527909e+02 2.407575e+02 2.060860e+03 
5.681789e+01 -6.644766e+02 2.612850e+03 
2.073413e+01 -5.832840e+02 2.566962e+03 
-1.534963e+01 -5.020915e+02 2.521074e+03 
-5.143340e+01 -4.208989e+02 2.475186e+03 
-8.751716e+01 -3.397064e+02 2.429297e+03 
-1.236009e+02 -2.585139e+02 2.383409e+03 
-1.596847e+02 -1.773213e+02 2.337521e+03 
-1.957684e+02 -9.612878e+01 2.291633e+03 
-2.318522e+02 -1.493624e+01 2.245744e+03 
-2.679360e+02 6.625629e+01 2.199856e+03 
-3.040197e+02 1.474488e+02 2.153968e+03 
-3.401035e+02 2.286414e+02 2.108079e+03 
