9.096534e+02 -5.336233e+02 2.142789e+03 
8.888815e+02 -4.551885e+02 2.201240e+03 
8.681095e+02 -3.767537e+02 2.259691e+03 
8.473376e+02 -2.983189e+02 2.318142e+03 
8.265657e+02 -2.198841e+02 2.376593e+03 
8.057938e+02 -1.414493e+02 2.435044e+03 
7.850218e+02 -6.301453e+01 2.493494e+03 
7.642499e+02 1.542027e+01 2.551945e+03 
7.434780e+02 9.385506e+01 2.610396e+03 
7.227061e+02 1.722899e+02 2.668847e+03 
7.019341e+02 2.507247e+02 2.727298e+03 
6.811622e+02 3.291594e+02 2.785749e+03 
8.263152e+02 -5.165261e+02 2.090230e+03 
8.055433e+02 -4.380913e+02 2.148681e+03 
7.847714e+02 -3.596565e+02 2.207132e+03 
7.639994e+02 -2.812217e+02 2.265583e+03 
7.432275e+02 -2.027869e+02 2.324034e+03 
7.224556e+02 -1.243521e+02 2.382485e+03 
7.016837e+02 -4.591730e+01 2.440936e+03 
6.809117e+02 3.251750e+01 2.499387e+03 
6.601398e+02 1.109523e+02 2.557837e+03 
6.393679e+02 1.893871e+02 2.616288e+03 
6.185960e+02 2.678219e+02 2.674739e+03 
5.978240e+02 3.462567e+02 2.733190e+03 
7.429770e+02 -4.994288e+02 2.037671e+03 
7.222051e+02 -4.209940e+02 2.096122e+03 
7.014332e+02 -3.425592e+02 2.154573e+03 
6.806612e+02 -2.641245e+02 2.213024e+03 
6.598893e+02 -1.856897e+02 2.271475e+03 
6.391174e+02 -1.072549e+02 2.329926e+03 
6.183455e+02 -2.882007e+01 2.388377e+03 
5.975735e+02 4.961473e+01 2.446828e+03 
5.768016e+02 1.280495e+02 2.505279e+03 
5.560297e+02 2.064843e+02 2.563730e+03 
5.352578e+02 2.849191e+02 2.622180e+03 
5.144858e+02 3.633539e+02 2.680631e+03 
6.596388e+02 -4.823316e+02 1.985112e+03 
6.388669e+02 -4.038968e+02 2.043563e+03 
6.180950e+02 -3.254620e+02 2.102014e+03 
5.973231e+02 -2.470272e+02 2.160465e+03 
5.765511e+02 -1.685924e+02 2.218916e+03 
5.557792e+02 -9.015763e+01 2.277367e+03 
5.350073e+02 -1.172284e+01 2.335818e+03 
5.142354e+02 6.671196e+01 2.394269e+03 
4.934634e+02 1.451468e+02 2.452720e+03 
4.726915e+02 2.235815e+02 2.511171e+03 
4.519196e+02 3.020163e+02 2.569622e+03 
4.311477e+02 3.804511e+02 2.628073e+03 
5.763006e+02 -4.652344e+02 1.932554e+03 
5.555287e+02 -3.867996e+02 1.991005e+03 
5.347568e+02 -3.083648e+02 2.049455e+03 
5.139849e+02 -2.299300e+02 2.107906e+03 
4.932129e+02 -1.514952e+02 2.166357e+03 
4.724410e+02 -7.306040e+01 2.224808e+03 
4.516691e+02 5.374392e+00 2.283259e+03 
4.308972e+02 8.380919e+01 2.341710e+03 
4.101252e+02 1.622440e+02 2.400161e+03 
3.893533e+02 2.406788e+02 2.458612e+03 
3.685814e+02 3.191136e+02 2.517063e+03 
3.478095e+02 3.975484e+02 2.575514e+03 
4.929624e+02 -4.481371e+02 1.879995e+03 
4.721905e+02 -3.697024e+02 1.938446e+03 
4.514186e+02 -2.912676e+02 1.996897e+03 
4.306467e+02 -2.128328e+02 2.055348e+03 
4.098748e+02 -1.343980e+02 2.113798e+03 
3.891028e+02 -5.596317e+01 2.172249e+03 
3.683309e+02 2.247162e+01 2.230700e+03 
3.475590e+02 1.009064e+02 2.289151e+03 
3.267871e+02 1.793412e+02 2.347602e+03 
3.060151e+02 2.577760e+02 2.406053e+03 
2.852432e+02 3.362108e+02 2.464504e+03 
2.644713e+02 4.146456e+02 2.522955e+03 
4.096243e+02 -4.310399e+02 1.827436e+03 
3.888523e+02 -3.526051e+02 1.885887e+03 
3.680804e+02 -2.741703e+02 1.944338e+03 
3.473085e+02 -1.957355e+02 2.002789e+03 
3.265366e+02 -1.173007e+02 2.061240e+03 
3.057646e+02 -3.886594e+01 2.119691e+03 
2.849927e+02 3.956885e+01 2.178141e+03 
2.642208e+02 1.180036e+02 2.236592e+03 
2.434489e+02 1.964384e+02 2.295043e+03 
2.226769e+02 2.748732e+02 2.353494e+03 
2.019050e+02 3.533080e+02 2.411945e+03 
1.811331e+02 4.317428e+02 2.470396e+03 
3.262861e+02 -4.139427e+02 1.774877e+03 
3.055141e+02 -3.355079e+02 1.833328e+03 
2.847422e+02 -2.570731e+02 1.891779e+03 
2.639703e+02 -1.786383e+02 1.950230e+03 
2.431984e+02 -1.002035e+02 2.008681e+03 
2.224265e+02 -2.176871e+01 2.067132e+03 
2.016545e+02 5.666608e+01 2.125583e+03 
1.808826e+02 1.351009e+02 2.184034e+03 
1.601107e+02 2.135357e+02 2.242484e+03 
1.393388e+02 2.919705e+02 2.300935e+03 
1.185668e+02 3.704053e+02 2.359386e+03 
9.779491e+01 4.488401e+02 2.417837e+03 
2.429479e+02 -3.968455e+02 1.722318e+03 
2.221760e+02 -3.184107e+02 1.780769e+03 
2.014040e+02 -2.399759e+02 1.839220e+03 
1.806321e+02 -1.615411e+02 1.897671e+03 
1.598602e+02 -8.310628e+01 1.956122e+03 
1.390883e+02 -4.671482e+00 2.014573e+03 
1.183163e+02 7.376331e+01 2.073024e+03 
9.754442e+01 1.521981e+02 2.131475e+03 
7.677249e+01 2.306329e+02 2.189926e+03 
5.600057e+01 3.090677e+02 2.248377e+03 
3.522864e+01 3.875025e+02 2.306827e+03 
1.445672e+01 4.659373e+02 2.365278e+03 
1.596097e+02 -3.797482e+02 1.669759e+03 
1.388378e+02 -3.013134e+02 1.728210e+03 
1.180658e+02 -2.228786e+02 1.786661e+03 
9.729392e+01 -1.444438e+02 1.845112e+03 
7.652200e+01 -6.600905e+01 1.903563e+03 
5.575008e+01 1.242575e+01 1.962014e+03 
3.497815e+01 9.086054e+01 2.020465e+03 
1.420623e+01 1.692953e+02 2.078916e+03 
-6.565697e+00 2.477301e+02 2.137367e+03 
-2.733762e+01 3.261649e+02 2.195818e+03 
-4.810955e+01 4.045997e+02 2.254269e+03 
-6.888147e+01 4.830345e+02 2.312720e+03 
7.627151e+01 -3.626510e+02 1.617201e+03 
5.549959e+01 -2.842162e+02 1.675652e+03 
3.472766e+01 -2.057814e+02 1.734102e+03 
1.395574e+01 -1.273466e+02 1.792553e+03 
-6.816188e+00 -4.891182e+01 1.851004e+03 
-2.758811e+01 2.952298e+01 1.909455e+03 
-4.836004e+01 1.079578e+02 1.967906e+03 
-6.913196e+01 1.863926e+02 2.026357e+03 
-8.990389e+01 2.648274e+02 2.084808e+03 
-1.106758e+02 3.432622e+02 2.143259e+03 
-1.314477e+02 4.216970e+02 2.201710e+03 
-1.522197e+02 5.001317e+02 2.260161e+03 
-7.066678e+00 -3.455538e+02 1.564642e+03 
-2.783860e+01 -2.671190e+02 1.623093e+03 
-4.861053e+01 -1.886842e+02 1.681544e+03 
-6.938245e+01 -1.102494e+02 1.739995e+03 
-9.015438e+01 -3.181459e+01 1.798445e+03 
-1.109263e+02 4.662021e+01 1.856896e+03 
-1.316982e+02 1.250550e+02 1.915347e+03 
-1.524701e+02 2.034898e+02 1.973798e+03 
-1.732421e+02 2.819246e+02 2.032249e+03 
-1.940140e+02 3.603594e+02 2.090700e+03 
-2.147859e+02 4.387942e+02 2.149151e+03 
-2.355578e+02 5.172290e+02 2.207602e+03 
-9.040487e+01 -3.284565e+02 1.512083e+03 
-1.111768e+02 -2.500217e+02 1.570534e+03 
-1.319487e+02 -1.715869e+02 1.628985e+03 
-1.527206e+02 -9.315215e+01 1.687436e+03 
-1.734926e+02 -1.471736e+01 1.745887e+03 
-1.942645e+02 6.371744e+01 1.804338e+03 
-2.150364e+02 1.421522e+02 1.862788e+03 
-2.358083e+02 2.205870e+02 1.921239e+03 
-2.565803e+02 2.990218e+02 1.979690e+03 
-2.773522e+02 3.774566e+02 2.038141e+03 
-2.981241e+02 4.558914e+02 2.096592e+03 
-3.188960e+02 5.343262e+02 2.155043e+03 
