5.726726e+02 -7.140612e+02 2.288882e+03 
5.537228e+02 -6.334855e+02 2.344993e+03 
5.347730e+02 -5.529099e+02 2.401104e+03 
5.158232e+02 -4.723343e+02 2.457215e+03 
4.968733e+02 -3.917587e+02 2.513327e+03 
4.779235e+02 -3.111830e+02 2.569438e+03 
4.589737e+02 -2.306074e+02 2.625549e+03 
4.400239e+02 -1.500318e+02 2.681660e+03 
4.210741e+02 -6.945617e+01 2.737772e+03 
4.021243e+02 1.111945e+01 2.793883e+03 
3.831745e+02 9.169507e+01 2.849994e+03 
3.642247e+02 1.722707e+02 2.906105e+03 
4.943790e+02 -6.919745e+02 2.230724e+03 
4.754292e+02 -6.113989e+02 2.286835e+03 
4.564794e+02 -5.308233e+02 2.342947e+03 
4.375296e+02 -4.502477e+02 2.399058e+03 
4.185798e+02 -3.696720e+02 2.455169e+03 
3.996300e+02 -2.890964e+02 2.511280e+03 
3.806801e+02 -2.085208e+02 2.567392e+03 
3.617303e+02 -1.279452e+02 2.623503e+03 
3.427805e+02 -4.736955e+01 2.679614e+03 
3.238307e+02 3.320607e+01 2.735725e+03 
3.048809e+02 1.137817e+02 2.791837e+03 
2.859311e+02 1.943573e+02 2.847948e+03 
4.160854e+02 -6.698879e+02 2.172567e+03 
3.971356e+02 -5.893123e+02 2.228678e+03 
3.781858e+02 -5.087367e+02 2.284789e+03 
3.592360e+02 -4.281610e+02 2.340900e+03 
3.402862e+02 -3.475854e+02 2.397012e+03 
3.213364e+02 -2.670098e+02 2.453123e+03 
3.023866e+02 -1.864342e+02 2.509234e+03 
2.834368e+02 -1.058586e+02 2.565345e+03 
2.644870e+02 -2.528293e+01 2.621457e+03 
2.455371e+02 5.529269e+01 2.677568e+03 
2.265873e+02 1.358683e+02 2.733679e+03 
2.076375e+02 2.164439e+02 2.789790e+03 
3.377918e+02 -6.478013e+02 2.114409e+03 
3.188420e+02 -5.672257e+02 2.170520e+03 
2.998922e+02 -4.866501e+02 2.226632e+03 
2.809424e+02 -4.060744e+02 2.282743e+03 
2.619926e+02 -3.254988e+02 2.338854e+03 
2.430428e+02 -2.449232e+02 2.394965e+03 
2.240930e+02 -1.643476e+02 2.451077e+03 
2.051432e+02 -8.377194e+01 2.507188e+03 
1.861934e+02 -3.196314e+00 2.563299e+03 
1.672436e+02 7.737931e+01 2.619410e+03 
1.482938e+02 1.579549e+02 2.675522e+03 
1.293439e+02 2.385306e+02 2.731633e+03 
2.594982e+02 -6.257147e+02 2.056252e+03 
2.405484e+02 -5.451391e+02 2.112363e+03 
2.215986e+02 -4.645634e+02 2.168474e+03 
2.026488e+02 -3.839878e+02 2.224585e+03 
1.836990e+02 -3.034122e+02 2.280697e+03 
1.647492e+02 -2.228366e+02 2.336808e+03 
1.457994e+02 -1.422609e+02 2.392919e+03 
1.268496e+02 -6.168532e+01 2.449030e+03 
1.078998e+02 1.889030e+01 2.505142e+03 
8.894998e+01 9.946593e+01 2.561253e+03 
7.000017e+01 1.800416e+02 2.617364e+03 
5.105036e+01 2.606172e+02 2.673475e+03 
1.812047e+02 -6.036281e+02 1.998094e+03 
1.622548e+02 -5.230524e+02 2.054205e+03 
1.433050e+02 -4.424768e+02 2.110317e+03 
1.243552e+02 -3.619012e+02 2.166428e+03 
1.054054e+02 -2.813256e+02 2.222539e+03 
8.645562e+01 -2.007499e+02 2.278650e+03 
6.750581e+01 -1.201743e+02 2.334762e+03 
4.855601e+01 -3.959870e+01 2.390873e+03 
2.960620e+01 4.097692e+01 2.446984e+03 
1.065639e+01 1.215525e+02 2.503095e+03 
-8.293414e+00 2.021282e+02 2.559207e+03 
-2.724322e+01 2.827038e+02 2.615318e+03 
1.029111e+02 -5.815414e+02 1.939936e+03 
8.396126e+01 -5.009658e+02 1.996048e+03 
6.501146e+01 -4.203902e+02 2.052159e+03 
4.606165e+01 -3.398146e+02 2.108270e+03 
2.711184e+01 -2.592389e+02 2.164382e+03 
8.162036e+00 -1.786633e+02 2.220493e+03 
-1.078777e+01 -9.808770e+01 2.276604e+03 
-2.973758e+01 -1.751208e+01 2.332715e+03 
-4.868738e+01 6.306354e+01 2.388827e+03 
-6.763719e+01 1.436392e+02 2.444938e+03 
-8.658700e+01 2.242148e+02 2.501049e+03 
-1.055368e+02 3.047904e+02 2.557160e+03 
2.461749e+01 -5.594548e+02 1.881779e+03 
5.667679e+00 -4.788792e+02 1.937890e+03 
-1.328213e+01 -3.983036e+02 1.994002e+03 
-3.223193e+01 -3.177280e+02 2.050113e+03 
-5.118174e+01 -2.371523e+02 2.106224e+03 
-7.013155e+01 -1.565767e+02 2.162335e+03 
-8.908135e+01 -7.600108e+01 2.218447e+03 
-1.080312e+02 4.574539e+00 2.274558e+03 
-1.269810e+02 8.515016e+01 2.330669e+03 
-1.459308e+02 1.657258e+02 2.386780e+03 
-1.648806e+02 2.463014e+02 2.442892e+03 
-1.838304e+02 3.268770e+02 2.499003e+03 
-5.367610e+01 -5.373682e+02 1.823621e+03 
-7.262590e+01 -4.567926e+02 1.879733e+03 
-9.157571e+01 -3.762170e+02 1.935844e+03 
-1.105255e+02 -2.956413e+02 1.991955e+03 
-1.294753e+02 -2.150657e+02 2.048067e+03 
-1.484251e+02 -1.344901e+02 2.104178e+03 
-1.673749e+02 -5.391447e+01 2.160289e+03 
-1.863247e+02 2.666116e+01 2.216400e+03 
-2.052746e+02 1.072368e+02 2.272512e+03 
-2.242244e+02 1.878124e+02 2.328623e+03 
-2.431742e+02 2.683880e+02 2.384734e+03 
-2.621240e+02 3.489636e+02 2.440845e+03 
-1.319697e+02 -5.152816e+02 1.765464e+03 
-1.509195e+02 -4.347060e+02 1.821575e+03 
-1.698693e+02 -3.541303e+02 1.877686e+03 
-1.888191e+02 -2.735547e+02 1.933798e+03 
-2.077689e+02 -1.929791e+02 1.989909e+03 
-2.267187e+02 -1.124035e+02 2.046020e+03 
-2.456685e+02 -3.182785e+01 2.102132e+03 
-2.646183e+02 4.874778e+01 2.158243e+03 
-2.835681e+02 1.293234e+02 2.214354e+03 
-3.025179e+02 2.098990e+02 2.270465e+03 
-3.214677e+02 2.904746e+02 2.326577e+03 
-3.404176e+02 3.710503e+02 2.382688e+03 
-2.102633e+02 -4.931950e+02 1.707306e+03 
-2.292131e+02 -4.126193e+02 1.763418e+03 
-2.481629e+02 -3.320437e+02 1.819529e+03 
-2.671127e+02 -2.514681e+02 1.875640e+03 
-2.860625e+02 -1.708925e+02 1.931752e+03 
-3.050123e+02 -9.031685e+01 1.987863e+03 
-3.239621e+02 -9.741227e+00 2.043974e+03 
-3.429119e+02 7.083440e+01 2.100085e+03 
-3.618617e+02 1.514100e+02 2.156197e+03 
-3.808115e+02 2.319856e+02 2.212308e+03 
-3.997613e+02 3.125613e+02 2.268419e+03 
-4.187111e+02 3.931369e+02 2.324530e+03 
-2.885568e+02 -4.711083e+02 1.649149e+03 
-3.075067e+02 -3.905327e+02 1.705260e+03 
-3.264565e+02 -3.099571e+02 1.761371e+03 
-3.454063e+02 -2.293815e+02 1.817483e+03 
-3.643561e+02 -1.488059e+02 1.873594e+03 
-3.833059e+02 -6.823023e+01 1.929705e+03 
-4.022557e+02 1.234539e+01 1.985817e+03 
-4.212055e+02 9.292101e+01 2.041928e+03 
-4.401553e+02 1.734966e+02 2.098039e+03 
-4.591051e+02 2.540723e+02 2.154150e+03 
-4.780549e+02 3.346479e+02 2.210262e+03 
-4.970047e+02 4.152235e+02 2.266373e+03 
-3.668504e+02 -4.490217e+02 1.590991e+03 
-3.858002e+02 -3.684461e+02 1.647103e+03 
-4.047500e+02 -2.878705e+02 1.703214e+03 
-4.236999e+02 -2.072949e+02 1.759325e+03 
-4.426497e+02 -1.267192e+02 1.815436e+03 
-4.615995e+02 -4.614361e+01 1.871548e+03 
-4.805493e+02 3.443201e+01 1.927659e+03 
-4.994991e+02 1.150076e+02 1.983770e+03 
-5.184489e+02 1.955833e+02 2.039882e+03 
-5.373987e+02 2.761589e+02 2.095993e+03 
-5.563485e+02 3.567345e+02 2.152104e+03 
-5.752983e+02 4.373101e+02 2.208215e+03 
