8.564165e+02 -3.137791e+02 2.981675e+03 
8.515666e+02 -2.444447e+02 2.909778e+03 
8.467168e+02 -1.751103e+02 2.837881e+03 
8.418670e+02 -1.057760e+02 2.765983e+03 
8.370171e+02 -3.644158e+01 2.694086e+03 
8.321673e+02 3.289279e+01 2.622189e+03 
8.273174e+02 1.022272e+02 2.550291e+03 
8.224676e+02 1.715615e+02 2.478394e+03 
8.176178e+02 2.408959e+02 2.406497e+03 
8.127679e+02 3.102303e+02 2.334599e+03 
8.079181e+02 3.795646e+02 2.262702e+03 
8.030683e+02 4.488990e+02 2.190805e+03 
7.577252e+02 -3.281886e+02 2.974437e+03 
7.528754e+02 -2.588543e+02 2.902539e+03 
7.480255e+02 -1.895199e+02 2.830642e+03 
7.431757e+02 -1.201855e+02 2.758745e+03 
7.383259e+02 -5.085116e+01 2.686847e+03 
7.334760e+02 1.848321e+01 2.614950e+03 
7.286262e+02 8.781758e+01 2.543053e+03 
7.237763e+02 1.571520e+02 2.471155e+03 
7.189265e+02 2.264863e+02 2.399258e+03 
7.140767e+02 2.958207e+02 2.327361e+03 
7.092268e+02 3.651551e+02 2.255463e+03 
7.043770e+02 4.344894e+02 2.183566e+03 
6.590339e+02 -3.425982e+02 2.967198e+03 
6.541841e+02 -2.732638e+02 2.895301e+03 
6.493343e+02 -2.039295e+02 2.823403e+03 
6.444844e+02 -1.345951e+02 2.751506e+03 
6.396346e+02 -6.526074e+01 2.679609e+03 
6.347848e+02 4.073634e+00 2.607711e+03 
6.299349e+02 7.340800e+01 2.535814e+03 
6.250851e+02 1.427424e+02 2.463917e+03 
6.202352e+02 2.120767e+02 2.392019e+03 
6.153854e+02 2.814111e+02 2.320122e+03 
6.105356e+02 3.507455e+02 2.248225e+03 
6.056857e+02 4.200799e+02 2.176327e+03 
5.603427e+02 -3.570078e+02 2.959959e+03 
5.554928e+02 -2.876734e+02 2.888062e+03 
5.506430e+02 -2.183391e+02 2.816165e+03 
5.457932e+02 -1.490047e+02 2.744267e+03 
5.409433e+02 -7.967031e+01 2.672370e+03 
5.360935e+02 -1.033594e+01 2.600473e+03 
5.312437e+02 5.899843e+01 2.528575e+03 
5.263938e+02 1.283328e+02 2.456678e+03 
5.215440e+02 1.976672e+02 2.384781e+03 
5.166941e+02 2.670015e+02 2.312883e+03 
5.118443e+02 3.363359e+02 2.240986e+03 
5.069945e+02 4.056703e+02 2.169089e+03 
4.616514e+02 -3.714174e+02 2.952720e+03 
4.568016e+02 -3.020830e+02 2.880823e+03 
4.519517e+02 -2.327486e+02 2.808926e+03 
4.471019e+02 -1.634143e+02 2.737029e+03 
4.422521e+02 -9.407989e+01 2.665131e+03 
4.374022e+02 -2.474552e+01 2.593234e+03 
4.325524e+02 4.458885e+01 2.521337e+03 
4.277026e+02 1.139232e+02 2.449439e+03 
4.228527e+02 1.832576e+02 2.377542e+03 
4.180029e+02 2.525920e+02 2.305645e+03 
4.131530e+02 3.219263e+02 2.233747e+03 
4.083032e+02 3.912607e+02 2.161850e+03 
3.629601e+02 -3.858269e+02 2.945482e+03 
3.581103e+02 -3.164926e+02 2.873584e+03 
3.532605e+02 -2.471582e+02 2.801687e+03 
3.484106e+02 -1.778238e+02 2.729790e+03 
3.435608e+02 -1.084895e+02 2.657893e+03 
3.387110e+02 -3.915510e+01 2.585995e+03 
3.338611e+02 3.017927e+01 2.514098e+03 
3.290113e+02 9.951364e+01 2.442201e+03 
3.241615e+02 1.688480e+02 2.370303e+03 
3.193116e+02 2.381824e+02 2.298406e+03 
3.144618e+02 3.075168e+02 2.226509e+03 
3.096119e+02 3.768511e+02 2.154611e+03 
2.642689e+02 -4.002365e+02 2.938243e+03 
2.594190e+02 -3.309022e+02 2.866346e+03 
2.545692e+02 -2.615678e+02 2.794448e+03 
2.497194e+02 -1.922334e+02 2.722551e+03 
2.448695e+02 -1.228990e+02 2.650654e+03 
2.400197e+02 -5.356468e+01 2.578756e+03 
2.351699e+02 1.576969e+01 2.506859e+03 
2.303200e+02 8.510406e+01 2.434962e+03 
2.254702e+02 1.544384e+02 2.363065e+03 
2.206204e+02 2.237728e+02 2.291167e+03 
2.157705e+02 2.931072e+02 2.219270e+03 
2.109207e+02 3.624415e+02 2.147373e+03 
1.655776e+02 -4.146461e+02 2.931004e+03 
1.607278e+02 -3.453117e+02 2.859107e+03 
1.558779e+02 -2.759774e+02 2.787210e+03 
1.510281e+02 -2.066430e+02 2.715312e+03 
1.461783e+02 -1.373086e+02 2.643415e+03 
1.413284e+02 -6.797425e+01 2.571518e+03 
1.364786e+02 1.360117e+00 2.499620e+03 
1.316288e+02 7.069449e+01 2.427723e+03 
1.267789e+02 1.400289e+02 2.355826e+03 
1.219291e+02 2.093632e+02 2.283929e+03 
1.170793e+02 2.786976e+02 2.212031e+03 
1.122294e+02 3.480320e+02 2.140134e+03 
6.688635e+01 -4.290557e+02 2.923766e+03 
6.203652e+01 -3.597213e+02 2.851868e+03 
5.718668e+01 -2.903869e+02 2.779971e+03 
5.233685e+01 -2.210526e+02 2.708074e+03 
4.748701e+01 -1.517182e+02 2.636176e+03 
4.263717e+01 -8.238383e+01 2.564279e+03 
3.778734e+01 -1.304946e+01 2.492382e+03 
3.293750e+01 5.628491e+01 2.420484e+03 
2.808767e+01 1.256193e+02 2.348587e+03 
2.323783e+01 1.949536e+02 2.276690e+03 
1.838799e+01 2.642880e+02 2.204793e+03 
1.353816e+01 3.336224e+02 2.132895e+03 
-3.180491e+01 -4.434653e+02 2.916527e+03 
-3.665474e+01 -3.741309e+02 2.844630e+03 
-4.150458e+01 -3.047965e+02 2.772732e+03 
-4.635442e+01 -2.354621e+02 2.700835e+03 
-5.120425e+01 -1.661278e+02 2.628938e+03 
-5.605409e+01 -9.679341e+01 2.557040e+03 
-6.090392e+01 -2.745904e+01 2.485143e+03 
-6.575376e+01 4.187533e+01 2.413246e+03 
-7.060360e+01 1.112097e+02 2.341348e+03 
-7.545343e+01 1.805441e+02 2.269451e+03 
-8.030327e+01 2.498784e+02 2.197554e+03 
-8.515310e+01 3.192128e+02 2.125657e+03 
-1.304962e+02 -4.578748e+02 2.909288e+03 
-1.353460e+02 -3.885405e+02 2.837391e+03 
-1.401958e+02 -3.192061e+02 2.765494e+03 
-1.450457e+02 -2.498717e+02 2.693596e+03 
-1.498955e+02 -1.805374e+02 2.621699e+03 
-1.547454e+02 -1.112030e+02 2.549802e+03 
-1.595952e+02 -4.186862e+01 2.477904e+03 
-1.644450e+02 2.746575e+01 2.406007e+03 
-1.692949e+02 9.680012e+01 2.334110e+03 
-1.741447e+02 1.661345e+02 2.262212e+03 
-1.789945e+02 2.354689e+02 2.190315e+03 
-1.838444e+02 3.048032e+02 2.118418e+03 
-2.291874e+02 -4.722844e+02 2.902050e+03 
-2.340373e+02 -4.029500e+02 2.830152e+03 
-2.388871e+02 -3.336157e+02 2.758255e+03 
-2.437369e+02 -2.642813e+02 2.686358e+03 
-2.485868e+02 -1.949469e+02 2.614460e+03 
-2.534366e+02 -1.256126e+02 2.542563e+03 
-2.582865e+02 -5.627819e+01 2.470666e+03 
-2.631363e+02 1.305618e+01 2.398768e+03 
-2.679861e+02 8.239055e+01 2.326871e+03 
-2.728360e+02 1.517249e+02 2.254974e+03 
-2.776858e+02 2.210593e+02 2.183076e+03 
-2.825356e+02 2.903937e+02 2.111179e+03 
-3.278787e+02 -4.866940e+02 2.894811e+03 
-3.327285e+02 -4.173596e+02 2.822914e+03 
-3.375784e+02 -3.480253e+02 2.751016e+03 
-3.424282e+02 -2.786909e+02 2.679119e+03 
-3.472780e+02 -2.093565e+02 2.607222e+03 
-3.521279e+02 -1.400221e+02 2.535324e+03 
-3.569777e+02 -7.068777e+01 2.463427e+03 
-3.618275e+02 -1.353401e+00 2.391530e+03 
-3.666774e+02 6.798097e+01 2.319632e+03 
-3.715272e+02 1.373153e+02 2.247735e+03 
-3.763771e+02 2.066497e+02 2.175838e+03 
-3.812269e+02 2.759841e+02 2.103940e+03 
