1.161665e+03 -5.898702e+02 2.326169e+03 
1.133251e+03 -5.042421e+02 2.369303e+03 
1.104838e+03 -4.186140e+02 2.412437e+03 
1.076425e+03 -3.329860e+02 2.455570e+03 
1.048011e+03 -2.473579e+02 2.498704e+03 
1.019598e+03 -1.617298e+02 2.541838e+03 
9.911844e+02 -7.610176e+01 2.584971e+03 
9.627710e+02 9.526310e+00 2.628105e+03 
9.343576e+02 9.515438e+01 2.671239e+03 
9.059443e+02 1.807824e+02 2.714373e+03 
8.775309e+02 2.664105e+02 2.757506e+03 
8.491175e+02 3.520386e+02 2.800640e+03 
1.084370e+03 -6.369456e+02 2.368706e+03 
1.055956e+03 -5.513175e+02 2.411840e+03 
1.027543e+03 -4.656895e+02 2.454973e+03 
9.991295e+02 -3.800614e+02 2.498107e+03 
9.707161e+02 -2.944333e+02 2.541241e+03 
9.423027e+02 -2.088053e+02 2.584375e+03 
9.138893e+02 -1.231772e+02 2.627508e+03 
8.854760e+02 -3.754914e+01 2.670642e+03 
8.570626e+02 4.807892e+01 2.713776e+03 
8.286492e+02 1.337070e+02 2.756909e+03 
8.002358e+02 2.193351e+02 2.800043e+03 
7.718225e+02 3.049631e+02 2.843177e+03 
1.007075e+03 -6.840211e+02 2.411243e+03 
9.786611e+02 -5.983930e+02 2.454377e+03 
9.502478e+02 -5.127649e+02 2.497510e+03 
9.218344e+02 -4.271369e+02 2.540644e+03 
8.934210e+02 -3.415088e+02 2.583778e+03 
8.650077e+02 -2.558807e+02 2.626911e+03 
8.365943e+02 -1.702527e+02 2.670045e+03 
8.081809e+02 -8.462460e+01 2.713179e+03 
7.797675e+02 1.003466e+00 2.756312e+03 
7.513542e+02 8.663153e+01 2.799446e+03 
7.229408e+02 1.722596e+02 2.842580e+03 
6.945274e+02 2.578877e+02 2.885713e+03 
9.297795e+02 -7.310965e+02 2.453780e+03 
9.013661e+02 -6.454685e+02 2.496913e+03 
8.729527e+02 -5.598404e+02 2.540047e+03 
8.445393e+02 -4.742123e+02 2.583181e+03 
8.161260e+02 -3.885843e+02 2.626314e+03 
7.877126e+02 -3.029562e+02 2.669448e+03 
7.592992e+02 -2.173281e+02 2.712582e+03 
7.308858e+02 -1.317001e+02 2.755715e+03 
7.024725e+02 -4.607199e+01 2.798849e+03 
6.740591e+02 3.955608e+01 2.841983e+03 
6.456457e+02 1.251841e+02 2.885116e+03 
6.172324e+02 2.108122e+02 2.928250e+03 
8.524844e+02 -7.781720e+02 2.496316e+03 
8.240710e+02 -6.925439e+02 2.539450e+03 
7.956577e+02 -6.069158e+02 2.582584e+03 
7.672443e+02 -5.212878e+02 2.625717e+03 
7.388309e+02 -4.356597e+02 2.668851e+03 
7.104175e+02 -3.500316e+02 2.711985e+03 
6.820042e+02 -2.644036e+02 2.755118e+03 
6.535908e+02 -1.787755e+02 2.798252e+03 
6.251774e+02 -9.314744e+01 2.841386e+03 
5.967640e+02 -7.519379e+00 2.884520e+03 
5.683507e+02 7.810869e+01 2.927653e+03 
5.399373e+02 1.637368e+02 2.970787e+03 
7.751893e+02 -8.252474e+02 2.538853e+03 
7.467760e+02 -7.396194e+02 2.581987e+03 
7.183626e+02 -6.539913e+02 2.625121e+03 
6.899492e+02 -5.683632e+02 2.668254e+03 
6.615358e+02 -4.827352e+02 2.711388e+03 
6.331225e+02 -3.971071e+02 2.754522e+03 
6.047091e+02 -3.114790e+02 2.797655e+03 
5.762957e+02 -2.258510e+02 2.840789e+03 
5.478824e+02 -1.402229e+02 2.883923e+03 
5.194690e+02 -5.459483e+01 2.927056e+03 
4.910556e+02 3.103323e+01 2.970190e+03 
4.626422e+02 1.166613e+02 3.013324e+03 
6.978943e+02 -8.723229e+02 2.581390e+03 
6.694809e+02 -7.866948e+02 2.624524e+03 
6.410675e+02 -7.010668e+02 2.667657e+03 
6.126542e+02 -6.154387e+02 2.710791e+03 
5.842408e+02 -5.298106e+02 2.753925e+03 
5.558274e+02 -4.441826e+02 2.797058e+03 
5.274140e+02 -3.585545e+02 2.840192e+03 
4.990007e+02 -2.729264e+02 2.883326e+03 
4.705873e+02 -1.872984e+02 2.926459e+03 
4.421739e+02 -1.016703e+02 2.969593e+03 
4.137606e+02 -1.604222e+01 3.012727e+03 
3.853472e+02 6.958584e+01 3.055860e+03 
6.205992e+02 -9.193983e+02 2.623927e+03 
5.921859e+02 -8.337703e+02 2.667060e+03 
5.637725e+02 -7.481422e+02 2.710194e+03 
5.353591e+02 -6.625141e+02 2.753328e+03 
5.069457e+02 -5.768861e+02 2.796461e+03 
4.785324e+02 -4.912580e+02 2.839595e+03 
4.501190e+02 -4.056299e+02 2.882729e+03 
4.217056e+02 -3.200019e+02 2.925862e+03 
3.932922e+02 -2.343738e+02 2.968996e+03 
3.648789e+02 -1.487457e+02 3.012130e+03 
3.364655e+02 -6.311768e+01 3.055263e+03 
3.080521e+02 2.251039e+01 3.098397e+03 
5.433042e+02 -9.664738e+02 2.666463e+03 
5.148908e+02 -8.808457e+02 2.709597e+03 
4.864774e+02 -7.952177e+02 2.752731e+03 
4.580640e+02 -7.095896e+02 2.795864e+03 
4.296507e+02 -6.239615e+02 2.838998e+03 
4.012373e+02 -5.383335e+02 2.882132e+03 
3.728239e+02 -4.527054e+02 2.925265e+03 
3.444106e+02 -3.670773e+02 2.968399e+03 
3.159972e+02 -2.814493e+02 3.011533e+03 
2.875838e+02 -1.958212e+02 3.054667e+03 
2.591704e+02 -1.101931e+02 3.097800e+03 
2.307571e+02 -2.456507e+01 3.140934e+03 
4.660091e+02 -1.013549e+03 2.709000e+03 
4.375957e+02 -9.279212e+02 2.752134e+03 
4.091824e+02 -8.422931e+02 2.795268e+03 
3.807690e+02 -7.566651e+02 2.838401e+03 
3.523556e+02 -6.710370e+02 2.881535e+03 
3.239422e+02 -5.854089e+02 2.924669e+03 
2.955289e+02 -4.997809e+02 2.967802e+03 
2.671155e+02 -4.141528e+02 3.010936e+03 
2.387021e+02 -3.285247e+02 3.054070e+03 
2.102888e+02 -2.428967e+02 3.097203e+03 
1.818754e+02 -1.572686e+02 3.140337e+03 
1.534620e+02 -7.164052e+01 3.183471e+03 
3.887140e+02 -1.060625e+03 2.751537e+03 
3.603007e+02 -9.749966e+02 2.794671e+03 
3.318873e+02 -8.893686e+02 2.837804e+03 
3.034739e+02 -8.037405e+02 2.880938e+03 
2.750606e+02 -7.181124e+02 2.924072e+03 
2.466472e+02 -6.324844e+02 2.967205e+03 
2.182338e+02 -5.468563e+02 3.010339e+03 
1.898204e+02 -4.612282e+02 3.053473e+03 
1.614071e+02 -3.756002e+02 3.096606e+03 
1.329937e+02 -2.899721e+02 3.139740e+03 
1.045803e+02 -2.043440e+02 3.182874e+03 
7.616695e+01 -1.187160e+02 3.226007e+03 
3.114190e+02 -1.107700e+03 2.794074e+03 
2.830056e+02 -1.022072e+03 2.837207e+03 
2.545922e+02 -9.364440e+02 2.880341e+03 
2.261789e+02 -8.508160e+02 2.923475e+03 
1.977655e+02 -7.651879e+02 2.966608e+03 
1.693521e+02 -6.795598e+02 3.009742e+03 
1.409388e+02 -5.939318e+02 3.052876e+03 
1.125254e+02 -5.083037e+02 3.096009e+03 
8.411201e+01 -4.226756e+02 3.139143e+03 
5.569864e+01 -3.370476e+02 3.182277e+03 
2.728527e+01 -2.514195e+02 3.225410e+03 
-1.128106e+00 -1.657914e+02 3.268544e+03 
2.341239e+02 -1.154776e+03 2.836610e+03 
2.057106e+02 -1.069148e+03 2.879744e+03 
1.772972e+02 -9.835195e+02 2.922878e+03 
1.488838e+02 -8.978914e+02 2.966011e+03 
1.204704e+02 -8.122634e+02 3.009145e+03 
9.205707e+01 -7.266353e+02 3.052279e+03 
6.364370e+01 -6.410072e+02 3.095413e+03 
3.523033e+01 -5.553792e+02 3.138546e+03 
6.816954e+00 -4.697511e+02 3.181680e+03 
-2.159642e+01 -3.841230e+02 3.224814e+03 
-5.000979e+01 -2.984950e+02 3.267947e+03 
-7.842316e+01 -2.128669e+02 3.311081e+03 
