7.217478e+02 -4.195402e+02 1.841101e+03 
7.046444e+02 -3.259119e+02 1.871780e+03 
6.875409e+02 -2.322837e+02 1.902459e+03 
6.704374e+02 -1.386554e+02 1.933139e+03 
6.533339e+02 -4.502718e+01 1.963818e+03 
6.362305e+02 4.860107e+01 1.994497e+03 
6.191270e+02 1.422293e+02 2.025177e+03 
6.020235e+02 2.358576e+02 2.055856e+03 
5.849200e+02 3.294858e+02 2.086535e+03 
5.678165e+02 4.231141e+02 2.117214e+03 
5.507131e+02 5.167423e+02 2.147894e+03 
5.336096e+02 6.103706e+02 2.178573e+03 
6.240519e+02 -4.316219e+02 1.823507e+03 
6.069484e+02 -3.379936e+02 1.854186e+03 
5.898449e+02 -2.443654e+02 1.884866e+03 
5.727414e+02 -1.507371e+02 1.915545e+03 
5.556379e+02 -5.710888e+01 1.946224e+03 
5.385345e+02 3.651937e+01 1.976904e+03 
5.214310e+02 1.301476e+02 2.007583e+03 
5.043275e+02 2.237759e+02 2.038262e+03 
4.872240e+02 3.174041e+02 2.068942e+03 
4.701206e+02 4.110324e+02 2.099621e+03 
4.530171e+02 5.046606e+02 2.130300e+03 
4.359136e+02 5.982889e+02 2.160980e+03 
5.263559e+02 -4.437036e+02 1.805914e+03 
5.092524e+02 -3.500753e+02 1.836593e+03 
4.921489e+02 -2.564471e+02 1.867272e+03 
4.750454e+02 -1.628188e+02 1.897952e+03 
4.579420e+02 -6.919058e+01 1.928631e+03 
4.408385e+02 2.443767e+01 1.959310e+03 
4.237350e+02 1.180659e+02 1.989990e+03 
4.066315e+02 2.116942e+02 2.020669e+03 
3.895280e+02 3.053224e+02 2.051348e+03 
3.724246e+02 3.989507e+02 2.082028e+03 
3.553211e+02 4.925789e+02 2.112707e+03 
3.382176e+02 5.862072e+02 2.143386e+03 
4.286599e+02 -4.557853e+02 1.788320e+03 
4.115564e+02 -3.621570e+02 1.819000e+03 
3.944529e+02 -2.685288e+02 1.849679e+03 
3.773494e+02 -1.749005e+02 1.880358e+03 
3.602460e+02 -8.127228e+01 1.911038e+03 
3.431425e+02 1.235597e+01 1.941717e+03 
3.260390e+02 1.059842e+02 1.972396e+03 
3.089355e+02 1.996125e+02 2.003076e+03 
2.918321e+02 2.932407e+02 2.033755e+03 
2.747286e+02 3.868690e+02 2.064434e+03 
2.576251e+02 4.804972e+02 2.095114e+03 
2.405216e+02 5.741255e+02 2.125793e+03 
3.309639e+02 -4.678670e+02 1.770727e+03 
3.138604e+02 -3.742387e+02 1.801406e+03 
2.967569e+02 -2.806105e+02 1.832086e+03 
2.796535e+02 -1.869822e+02 1.862765e+03 
2.625500e+02 -9.335398e+01 1.893444e+03 
2.454465e+02 2.742765e-01 1.924124e+03 
2.283430e+02 9.390253e+01 1.954803e+03 
2.112396e+02 1.875308e+02 1.985482e+03 
1.941361e+02 2.811590e+02 2.016162e+03 
1.770326e+02 3.747873e+02 2.046841e+03 
1.599291e+02 4.684155e+02 2.077520e+03 
1.428256e+02 5.620438e+02 2.108200e+03 
2.332679e+02 -4.799487e+02 1.753134e+03 
2.161644e+02 -3.863204e+02 1.783813e+03 
1.990609e+02 -2.926922e+02 1.814492e+03 
1.819575e+02 -1.990639e+02 1.845172e+03 
1.648540e+02 -1.054357e+02 1.875851e+03 
1.477505e+02 -1.180742e+01 1.906530e+03 
1.306470e+02 8.182083e+01 1.937210e+03 
1.135436e+02 1.754491e+02 1.967889e+03 
9.644009e+01 2.690773e+02 1.998568e+03 
7.933661e+01 3.627056e+02 2.029248e+03 
6.223313e+01 4.563338e+02 2.059927e+03 
4.512966e+01 5.499621e+02 2.090606e+03 
1.355719e+02 -4.920304e+02 1.735540e+03 
1.184684e+02 -3.984021e+02 1.766220e+03 
1.013650e+02 -3.047739e+02 1.796899e+03 
8.426148e+01 -2.111456e+02 1.827578e+03 
6.715801e+01 -1.175174e+02 1.858258e+03 
5.005453e+01 -2.388912e+01 1.888937e+03 
3.295105e+01 6.973913e+01 1.919616e+03 
1.584758e+01 1.633674e+02 1.950296e+03 
-1.255901e+00 2.569956e+02 1.980975e+03 
-1.835938e+01 3.506239e+02 2.011654e+03 
-3.546286e+01 4.442521e+02 2.042334e+03 
-5.256633e+01 5.378804e+02 2.073013e+03 
3.787593e+01 -5.041121e+02 1.717947e+03 
2.077245e+01 -4.104838e+02 1.748626e+03 
3.668974e+00 -3.168556e+02 1.779306e+03 
-1.343450e+01 -2.232273e+02 1.809985e+03 
-3.053798e+01 -1.295991e+02 1.840664e+03 
-4.764146e+01 -3.597082e+01 1.871344e+03 
-6.474493e+01 5.765743e+01 1.902023e+03 
-8.184841e+01 1.512857e+02 1.932702e+03 
-9.895189e+01 2.449139e+02 1.963382e+03 
-1.160554e+02 3.385422e+02 1.994061e+03 
-1.331588e+02 4.321704e+02 2.024740e+03 
-1.502623e+02 5.257987e+02 2.055420e+03 
-5.982006e+01 -5.161938e+02 1.700354e+03 
-7.692354e+01 -4.225655e+02 1.731033e+03 
-9.402701e+01 -3.289373e+02 1.761712e+03 
-1.111305e+02 -2.353090e+02 1.792392e+03 
-1.282340e+02 -1.416808e+02 1.823071e+03 
-1.453374e+02 -4.805252e+01 1.853750e+03 
-1.624409e+02 4.557574e+01 1.884430e+03 
-1.795444e+02 1.392040e+02 1.915109e+03 
-1.966479e+02 2.328322e+02 1.945788e+03 
-2.137514e+02 3.264605e+02 1.976468e+03 
-2.308548e+02 4.200888e+02 2.007147e+03 
-2.479583e+02 5.137170e+02 2.037826e+03 
-1.575160e+02 -5.282755e+02 1.682760e+03 
-1.746195e+02 -4.346472e+02 1.713440e+03 
-1.917230e+02 -3.410190e+02 1.744119e+03 
-2.088265e+02 -2.473907e+02 1.774798e+03 
-2.259300e+02 -1.537625e+02 1.805478e+03 
-2.430334e+02 -6.013422e+01 1.836157e+03 
-2.601369e+02 3.349404e+01 1.866836e+03 
-2.772404e+02 1.271223e+02 1.897516e+03 
-2.943439e+02 2.207505e+02 1.928195e+03 
-3.114473e+02 3.143788e+02 1.958874e+03 
-3.285508e+02 4.080071e+02 1.989553e+03 
-3.456543e+02 5.016353e+02 2.020233e+03 
-2.552120e+02 -5.403572e+02 1.665167e+03 
-2.723155e+02 -4.467289e+02 1.695846e+03 
-2.894190e+02 -3.531007e+02 1.726526e+03 
-3.065225e+02 -2.594724e+02 1.757205e+03 
-3.236259e+02 -1.658442e+02 1.787884e+03 
-3.407294e+02 -7.221591e+01 1.818563e+03 
-3.578329e+02 2.141234e+01 1.849243e+03 
-3.749364e+02 1.150406e+02 1.879922e+03 
-3.920398e+02 2.086688e+02 1.910601e+03 
-4.091433e+02 3.022971e+02 1.941281e+03 
-4.262468e+02 3.959254e+02 1.971960e+03 
-4.433503e+02 4.895536e+02 2.002639e+03 
-3.529080e+02 -5.524389e+02 1.647573e+03 
-3.700115e+02 -4.588106e+02 1.678253e+03 
-3.871150e+02 -3.651824e+02 1.708932e+03 
-4.042185e+02 -2.715541e+02 1.739611e+03 
-4.213219e+02 -1.779259e+02 1.770291e+03 
-4.384254e+02 -8.429761e+01 1.800970e+03 
-4.555289e+02 9.330641e+00 1.831649e+03 
-4.726324e+02 1.029589e+02 1.862329e+03 
-4.897358e+02 1.965871e+02 1.893008e+03 
-5.068393e+02 2.902154e+02 1.923687e+03 
-5.239428e+02 3.838437e+02 1.954367e+03 
-5.410463e+02 4.774719e+02 1.985046e+03 
-4.506040e+02 -5.645206e+02 1.629980e+03 
-4.677075e+02 -4.708923e+02 1.660659e+03 
-4.848110e+02 -3.772641e+02 1.691339e+03 
-5.019144e+02 -2.836358e+02 1.722018e+03 
-5.190179e+02 -1.900076e+02 1.752697e+03 
-5.361214e+02 -9.637931e+01 1.783377e+03 
-5.532249e+02 -2.751058e+00 1.814056e+03 
-5.703283e+02 9.087720e+01 1.844735e+03 
-5.874318e+02 1.845054e+02 1.875415e+03 
-6.045353e+02 2.781337e+02 1.906094e+03 
-6.216388e+02 3.717620e+02 1.936773e+03 
-6.387423e+02 4.653902e+02 1.967453e+03 
