8.713626e+02 -1.589239e+02 1.640645e+03 
8.537942e+02 -9.275538e+01 1.713535e+03 
8.362259e+02 -2.658685e+01 1.786426e+03 
8.186575e+02 3.958168e+01 1.859317e+03 
8.010891e+02 1.057502e+02 1.932208e+03 
7.835208e+02 1.719187e+02 2.005099e+03 
7.659524e+02 2.380873e+02 2.077990e+03 
7.483841e+02 3.042558e+02 2.150881e+03 
7.308157e+02 3.704243e+02 2.223772e+03 
7.132473e+02 4.365929e+02 2.296662e+03 
6.956790e+02 5.027614e+02 2.369553e+03 
6.781106e+02 5.689299e+02 2.442444e+03 
7.731283e+02 -1.755449e+02 1.632056e+03 
7.555599e+02 -1.093764e+02 1.704947e+03 
7.379915e+02 -4.320785e+01 1.777838e+03 
7.204232e+02 2.296068e+01 1.850729e+03 
7.028548e+02 8.912921e+01 1.923619e+03 
6.852865e+02 1.552977e+02 1.996510e+03 
6.677181e+02 2.214663e+02 2.069401e+03 
6.501498e+02 2.876348e+02 2.142292e+03 
6.325814e+02 3.538033e+02 2.215183e+03 
6.150130e+02 4.199719e+02 2.288074e+03 
5.974447e+02 4.861404e+02 2.360965e+03 
5.798763e+02 5.523089e+02 2.433856e+03 
6.748940e+02 -1.921659e+02 1.623467e+03 
6.573256e+02 -1.259974e+02 1.696358e+03 
6.397572e+02 -5.982885e+01 1.769249e+03 
6.221889e+02 6.339677e+00 1.842140e+03 
6.046205e+02 7.250821e+01 1.915031e+03 
5.870522e+02 1.386767e+02 1.987922e+03 
5.694838e+02 2.048453e+02 2.060813e+03 
5.519154e+02 2.710138e+02 2.133704e+03 
5.343471e+02 3.371823e+02 2.206594e+03 
5.167787e+02 4.033509e+02 2.279485e+03 
4.992104e+02 4.695194e+02 2.352376e+03 
4.816420e+02 5.356879e+02 2.425267e+03 
5.766597e+02 -2.087869e+02 1.614879e+03 
5.590913e+02 -1.426184e+02 1.687770e+03 
5.415229e+02 -7.644986e+01 1.760661e+03 
5.239546e+02 -1.028133e+01 1.833551e+03 
5.063862e+02 5.588720e+01 1.906442e+03 
4.888179e+02 1.220557e+02 1.979333e+03 
4.712495e+02 1.882243e+02 2.052224e+03 
4.536811e+02 2.543928e+02 2.125115e+03 
4.361128e+02 3.205613e+02 2.198006e+03 
4.185444e+02 3.867299e+02 2.270897e+03 
4.009761e+02 4.528984e+02 2.343788e+03 
3.834077e+02 5.190669e+02 2.416678e+03 
4.784253e+02 -2.254079e+02 1.606290e+03 
4.608570e+02 -1.592394e+02 1.679181e+03 
4.432886e+02 -9.307086e+01 1.752072e+03 
4.257203e+02 -2.690233e+01 1.824963e+03 
4.081519e+02 3.926620e+01 1.897854e+03 
3.905836e+02 1.054347e+02 1.970745e+03 
3.730152e+02 1.716033e+02 2.043636e+03 
3.554468e+02 2.377718e+02 2.116526e+03 
3.378785e+02 3.039403e+02 2.189417e+03 
3.203101e+02 3.701089e+02 2.262308e+03 
3.027418e+02 4.362774e+02 2.335199e+03 
2.851734e+02 5.024459e+02 2.408090e+03 
3.801910e+02 -2.420289e+02 1.597702e+03 
3.626227e+02 -1.758604e+02 1.670593e+03 
3.450543e+02 -1.096919e+02 1.743483e+03 
3.274860e+02 -4.352333e+01 1.816374e+03 
3.099176e+02 2.264520e+01 1.889265e+03 
2.923492e+02 8.881373e+01 1.962156e+03 
2.747809e+02 1.549823e+02 2.035047e+03 
2.572125e+02 2.211508e+02 2.107938e+03 
2.396442e+02 2.873193e+02 2.180829e+03 
2.220758e+02 3.534878e+02 2.253720e+03 
2.045075e+02 4.196564e+02 2.326610e+03 
1.869391e+02 4.858249e+02 2.399501e+03 
2.819567e+02 -2.586499e+02 1.589113e+03 
2.643884e+02 -1.924814e+02 1.662004e+03 
2.468200e+02 -1.263129e+02 1.734895e+03 
2.292517e+02 -6.014433e+01 1.807786e+03 
2.116833e+02 6.024198e+00 1.880677e+03 
1.941149e+02 7.219273e+01 1.953568e+03 
1.765466e+02 1.383613e+02 2.026458e+03 
1.589782e+02 2.045298e+02 2.099349e+03 
1.414099e+02 2.706983e+02 2.172240e+03 
1.238415e+02 3.368668e+02 2.245131e+03 
1.062731e+02 4.030354e+02 2.318022e+03 
8.870479e+01 4.692039e+02 2.390913e+03 
1.837224e+02 -2.752709e+02 1.580525e+03 
1.661541e+02 -2.091024e+02 1.653415e+03 
1.485857e+02 -1.429339e+02 1.726306e+03 
1.310174e+02 -7.676533e+01 1.799197e+03 
1.134490e+02 -1.059680e+01 1.872088e+03 
9.588064e+01 5.557173e+01 1.944979e+03 
7.831228e+01 1.217403e+02 2.017870e+03 
6.074392e+01 1.879088e+02 2.090761e+03 
4.317556e+01 2.540773e+02 2.163652e+03 
2.560720e+01 3.202458e+02 2.236542e+03 
8.038844e+00 3.864144e+02 2.309433e+03 
-9.529514e+00 4.525829e+02 2.382324e+03 
8.548813e+01 -2.918919e+02 1.571936e+03 
6.791977e+01 -2.257234e+02 1.644827e+03 
5.035141e+01 -1.595549e+02 1.717718e+03 
3.278305e+01 -9.338634e+01 1.790609e+03 
1.521469e+01 -2.721781e+01 1.863500e+03 
-2.353667e+00 3.895072e+01 1.936390e+03 
-1.992203e+01 1.051193e+02 2.009281e+03 
-3.749038e+01 1.712878e+02 2.082172e+03 
-5.505874e+01 2.374563e+02 2.155063e+03 
-7.262710e+01 3.036248e+02 2.227954e+03 
-9.019546e+01 3.697934e+02 2.300845e+03 
-1.077638e+02 4.359619e+02 2.373736e+03 
-1.274618e+01 -3.085129e+02 1.563347e+03 
-3.031454e+01 -2.423444e+02 1.636238e+03 
-4.788290e+01 -1.761759e+02 1.709129e+03 
-6.545125e+01 -1.100073e+02 1.782020e+03 
-8.301961e+01 -4.383881e+01 1.854911e+03 
-1.005880e+02 2.232972e+01 1.927802e+03 
-1.181563e+02 8.849825e+01 2.000693e+03 
-1.357247e+02 1.546668e+02 2.073584e+03 
-1.532930e+02 2.208353e+02 2.146474e+03 
-1.708614e+02 2.870038e+02 2.219365e+03 
-1.884298e+02 3.531724e+02 2.292256e+03 
-2.059981e+02 4.193409e+02 2.365147e+03 
-1.109805e+02 -3.251339e+02 1.554759e+03 
-1.285488e+02 -2.589654e+02 1.627650e+03 
-1.461172e+02 -1.927969e+02 1.700541e+03 
-1.636856e+02 -1.266283e+02 1.773432e+03 
-1.812539e+02 -6.045981e+01 1.846322e+03 
-1.988223e+02 5.708718e+00 1.919213e+03 
-2.163906e+02 7.187725e+01 1.992104e+03 
-2.339590e+02 1.380458e+02 2.064995e+03 
-2.515274e+02 2.042143e+02 2.137886e+03 
-2.690957e+02 2.703828e+02 2.210777e+03 
-2.866641e+02 3.365514e+02 2.283668e+03 
-3.042324e+02 4.027199e+02 2.356558e+03 
-2.092148e+02 -3.417549e+02 1.546170e+03 
-2.267831e+02 -2.755864e+02 1.619061e+03 
-2.443515e+02 -2.094179e+02 1.691952e+03 
-2.619199e+02 -1.432493e+02 1.764843e+03 
-2.794882e+02 -7.708081e+01 1.837734e+03 
-2.970566e+02 -1.091228e+01 1.910625e+03 
-3.146249e+02 5.525625e+01 1.983516e+03 
-3.321933e+02 1.214248e+02 2.056406e+03 
-3.497617e+02 1.875933e+02 2.129297e+03 
-3.673300e+02 2.537618e+02 2.202188e+03 
-3.848984e+02 3.199304e+02 2.275079e+03 
-4.024667e+02 3.860989e+02 2.347970e+03 
-3.074491e+02 -3.583759e+02 1.537582e+03 
-3.250175e+02 -2.922074e+02 1.610473e+03 
-3.425858e+02 -2.260389e+02 1.683363e+03 
-3.601542e+02 -1.598703e+02 1.756254e+03 
-3.777225e+02 -9.370182e+01 1.829145e+03 
-3.952909e+02 -2.753329e+01 1.902036e+03 
-4.128592e+02 3.863524e+01 1.974927e+03 
-4.304276e+02 1.048038e+02 2.047818e+03 
-4.479960e+02 1.709723e+02 2.120709e+03 
-4.655643e+02 2.371408e+02 2.193600e+03 
-4.831327e+02 3.033094e+02 2.266490e+03 
-5.007010e+02 3.694779e+02 2.339381e+03 
