1.049892e+03 -2.295213e+02 1.750907e+03 
1.023461e+03 -1.462099e+02 1.799493e+03 
9.970307e+02 -6.289846e+01 1.848080e+03 
9.705999e+02 2.041297e+01 1.896666e+03 
9.441691e+02 1.037244e+02 1.945252e+03 
9.177383e+02 1.870358e+02 1.993838e+03 
8.913075e+02 2.703473e+02 2.042424e+03 
8.648767e+02 3.536587e+02 2.091010e+03 
8.384459e+02 4.369701e+02 2.139597e+03 
8.120151e+02 5.202816e+02 2.188183e+03 
7.855843e+02 6.035930e+02 2.236769e+03 
7.591536e+02 6.869045e+02 2.285355e+03 
9.855565e+02 -2.822827e+02 1.806379e+03 
9.591257e+02 -1.989712e+02 1.854965e+03 
9.326949e+02 -1.156598e+02 1.903552e+03 
9.062642e+02 -3.234836e+01 1.952138e+03 
8.798334e+02 5.096307e+01 2.000724e+03 
8.534026e+02 1.342745e+02 2.049310e+03 
8.269718e+02 2.175859e+02 2.097896e+03 
8.005410e+02 3.008974e+02 2.146483e+03 
7.741102e+02 3.842088e+02 2.195069e+03 
7.476794e+02 4.675203e+02 2.243655e+03 
7.212486e+02 5.508317e+02 2.292241e+03 
6.948178e+02 6.341431e+02 2.340827e+03 
9.212208e+02 -3.350440e+02 1.861851e+03 
8.947900e+02 -2.517326e+02 1.910438e+03 
8.683592e+02 -1.684211e+02 1.959024e+03 
8.419284e+02 -8.510970e+01 2.007610e+03 
8.154976e+02 -1.798260e+00 2.056196e+03 
7.890668e+02 8.151318e+01 2.104782e+03 
7.626360e+02 1.648246e+02 2.153368e+03 
7.362052e+02 2.481360e+02 2.201955e+03 
7.097744e+02 3.314475e+02 2.250541e+03 
6.833436e+02 4.147589e+02 2.299127e+03 
6.569128e+02 4.980704e+02 2.347713e+03 
6.304821e+02 5.813818e+02 2.396299e+03 
8.568850e+02 -3.878053e+02 1.917323e+03 
8.304542e+02 -3.044939e+02 1.965910e+03 
8.040234e+02 -2.211825e+02 2.014496e+03 
7.775926e+02 -1.378710e+02 2.063082e+03 
7.511619e+02 -5.455959e+01 2.111668e+03 
7.247311e+02 2.875184e+01 2.160254e+03 
6.983003e+02 1.120633e+02 2.208841e+03 
6.718695e+02 1.953747e+02 2.257427e+03 
6.454387e+02 2.786861e+02 2.306013e+03 
6.190079e+02 3.619976e+02 2.354599e+03 
5.925771e+02 4.453090e+02 2.403185e+03 
5.661463e+02 5.286205e+02 2.451772e+03 
7.925493e+02 -4.405667e+02 1.972795e+03 
7.661185e+02 -3.572552e+02 2.021382e+03 
7.396877e+02 -2.739438e+02 2.069968e+03 
7.132569e+02 -1.906324e+02 2.118554e+03 
6.868261e+02 -1.073209e+02 2.167140e+03 
6.603953e+02 -2.400949e+01 2.215726e+03 
6.339645e+02 5.930194e+01 2.264313e+03 
6.075337e+02 1.426134e+02 2.312899e+03 
5.811029e+02 2.259248e+02 2.361485e+03 
5.546721e+02 3.092362e+02 2.410071e+03 
5.282413e+02 3.925477e+02 2.458657e+03 
5.018105e+02 4.758591e+02 2.507244e+03 
7.282135e+02 -4.933280e+02 2.028268e+03 
7.017827e+02 -4.100166e+02 2.076854e+03 
6.753519e+02 -3.267051e+02 2.125440e+03 
6.489211e+02 -2.433937e+02 2.174026e+03 
6.224903e+02 -1.600823e+02 2.222612e+03 
5.960596e+02 -7.677083e+01 2.271199e+03 
5.696288e+02 6.540610e+00 2.319785e+03 
5.431980e+02 8.985205e+01 2.368371e+03 
5.167672e+02 1.731635e+02 2.416957e+03 
4.903364e+02 2.564749e+02 2.465543e+03 
4.639056e+02 3.397864e+02 2.514129e+03 
4.374748e+02 4.230978e+02 2.562716e+03 
6.638778e+02 -5.460893e+02 2.083740e+03 
6.374470e+02 -4.627779e+02 2.132326e+03 
6.110162e+02 -3.794665e+02 2.180912e+03 
5.845854e+02 -2.961550e+02 2.229498e+03 
5.581546e+02 -2.128436e+02 2.278084e+03 
5.317238e+02 -1.295322e+02 2.326671e+03 
5.052930e+02 -4.622072e+01 2.375257e+03 
4.788622e+02 3.709071e+01 2.423843e+03 
4.524314e+02 1.204021e+02 2.472429e+03 
4.260006e+02 2.037136e+02 2.521015e+03 
3.995698e+02 2.870250e+02 2.569602e+03 
3.731390e+02 3.703365e+02 2.618188e+03 
5.995420e+02 -5.988507e+02 2.139212e+03 
5.731112e+02 -5.155392e+02 2.187798e+03 
5.466804e+02 -4.322278e+02 2.236384e+03 
5.202496e+02 -3.489164e+02 2.284970e+03 
4.938188e+02 -2.656049e+02 2.333557e+03 
4.673880e+02 -1.822935e+02 2.382143e+03 
4.409573e+02 -9.898206e+01 2.430729e+03 
4.145265e+02 -1.567062e+01 2.479315e+03 
3.880957e+02 6.764081e+01 2.527901e+03 
3.616649e+02 1.509522e+02 2.576487e+03 
3.352341e+02 2.342637e+02 2.625074e+03 
3.088033e+02 3.175751e+02 2.673660e+03 
5.352063e+02 -6.516120e+02 2.194684e+03 
5.087755e+02 -5.683006e+02 2.243270e+03 
4.823447e+02 -4.849891e+02 2.291856e+03 
4.559139e+02 -4.016777e+02 2.340442e+03 
4.294831e+02 -3.183663e+02 2.389029e+03 
4.030523e+02 -2.350548e+02 2.437615e+03 
3.766215e+02 -1.517434e+02 2.486201e+03 
3.501907e+02 -6.843196e+01 2.534787e+03 
3.237599e+02 1.487948e+01 2.583373e+03 
2.973291e+02 9.819091e+01 2.631960e+03 
2.708983e+02 1.815023e+02 2.680546e+03 
2.444675e+02 2.648138e+02 2.729132e+03 
4.708705e+02 -7.043733e+02 2.250156e+03 
4.444397e+02 -6.210619e+02 2.298742e+03 
4.180089e+02 -5.377505e+02 2.347328e+03 
3.915781e+02 -4.544390e+02 2.395915e+03 
3.651473e+02 -3.711276e+02 2.444501e+03 
3.387165e+02 -2.878162e+02 2.493087e+03 
3.122857e+02 -2.045047e+02 2.541673e+03 
2.858550e+02 -1.211933e+02 2.590259e+03 
2.594242e+02 -3.788185e+01 2.638845e+03 
2.329934e+02 4.542958e+01 2.687432e+03 
2.065626e+02 1.287410e+02 2.736018e+03 
1.801318e+02 2.120525e+02 2.784604e+03 
4.065348e+02 -7.571347e+02 2.305628e+03 
3.801040e+02 -6.738232e+02 2.354214e+03 
3.536732e+02 -5.905118e+02 2.402800e+03 
3.272424e+02 -5.072004e+02 2.451387e+03 
3.008116e+02 -4.238889e+02 2.499973e+03 
2.743808e+02 -3.405775e+02 2.548559e+03 
2.479500e+02 -2.572661e+02 2.597145e+03 
2.215192e+02 -1.739546e+02 2.645731e+03 
1.950884e+02 -9.064319e+01 2.694318e+03 
1.686576e+02 -7.331753e+00 2.742904e+03 
1.422268e+02 7.597968e+01 2.791490e+03 
1.157960e+02 1.592911e+02 2.840076e+03 
3.421990e+02 -8.098960e+02 2.361100e+03 
3.157682e+02 -7.265846e+02 2.409686e+03 
2.893374e+02 -6.432731e+02 2.458272e+03 
2.629066e+02 -5.599617e+02 2.506859e+03 
2.364758e+02 -4.766503e+02 2.555445e+03 
2.100450e+02 -3.933388e+02 2.604031e+03 
1.836142e+02 -3.100274e+02 2.652617e+03 
1.571834e+02 -2.267160e+02 2.701203e+03 
1.307527e+02 -1.434045e+02 2.749790e+03 
1.043219e+02 -6.009309e+01 2.798376e+03 
7.789107e+01 2.321835e+01 2.846962e+03 
5.146027e+01 1.065298e+02 2.895548e+03 
2.778632e+02 -8.626573e+02 2.416572e+03 
2.514325e+02 -7.793459e+02 2.465158e+03 
2.250017e+02 -6.960345e+02 2.513745e+03 
1.985709e+02 -6.127230e+02 2.562331e+03 
1.721401e+02 -5.294116e+02 2.610917e+03 
1.457093e+02 -4.461002e+02 2.659503e+03 
1.192785e+02 -3.627887e+02 2.708089e+03 
9.284769e+01 -2.794773e+02 2.756676e+03 
6.641690e+01 -1.961659e+02 2.805262e+03 
3.998611e+01 -1.128544e+02 2.853848e+03 
1.355531e+01 -2.954298e+01 2.902434e+03 
-1.287548e+01 5.376845e+01 2.951020e+03 
