9.384993e+02 -5.257351e+02 2.633367e+03 
9.279250e+02 -4.363544e+02 2.589787e+03 
9.173507e+02 -3.469737e+02 2.546206e+03 
9.067764e+02 -2.575930e+02 2.502625e+03 
8.962020e+02 -1.682124e+02 2.459045e+03 
8.856277e+02 -7.883167e+01 2.415464e+03 
8.750534e+02 1.054901e+01 2.371883e+03 
8.644790e+02 9.992969e+01 2.328303e+03 
8.539047e+02 1.893104e+02 2.284722e+03 
8.433304e+02 2.786910e+02 2.241141e+03 
8.327560e+02 3.680717e+02 2.197560e+03 
8.221817e+02 4.574524e+02 2.153980e+03 
8.398354e+02 -5.406281e+02 2.626763e+03 
8.292611e+02 -4.512474e+02 2.583182e+03 
8.186867e+02 -3.618667e+02 2.539601e+03 
8.081124e+02 -2.724860e+02 2.496021e+03 
7.975381e+02 -1.831053e+02 2.452440e+03 
7.869637e+02 -9.372466e+01 2.408859e+03 
7.763894e+02 -4.343983e+00 2.365278e+03 
7.658151e+02 8.503670e+01 2.321698e+03 
7.552407e+02 1.744174e+02 2.278117e+03 
7.446664e+02 2.637981e+02 2.234536e+03 
7.340921e+02 3.531787e+02 2.190956e+03 
7.235177e+02 4.425594e+02 2.147375e+03 
7.411714e+02 -5.555210e+02 2.620158e+03 
7.305971e+02 -4.661404e+02 2.576577e+03 
7.200228e+02 -3.767597e+02 2.532997e+03 
7.094484e+02 -2.873790e+02 2.489416e+03 
6.988741e+02 -1.979983e+02 2.445835e+03 
6.882998e+02 -1.086177e+02 2.402254e+03 
6.777255e+02 -1.923697e+01 2.358674e+03 
6.671511e+02 7.014371e+01 2.315093e+03 
6.565768e+02 1.595244e+02 2.271512e+03 
6.460025e+02 2.489051e+02 2.227932e+03 
6.354281e+02 3.382857e+02 2.184351e+03 
6.248538e+02 4.276664e+02 2.140770e+03 
6.425075e+02 -5.704140e+02 2.613553e+03 
6.319332e+02 -4.810334e+02 2.569972e+03 
6.213588e+02 -3.916527e+02 2.526392e+03 
6.107845e+02 -3.022720e+02 2.482811e+03 
6.002102e+02 -2.128913e+02 2.439230e+03 
5.896358e+02 -1.235106e+02 2.395650e+03 
5.790615e+02 -3.412996e+01 2.352069e+03 
5.684872e+02 5.525072e+01 2.308488e+03 
5.579128e+02 1.446314e+02 2.264908e+03 
5.473385e+02 2.340121e+02 2.221327e+03 
5.367642e+02 3.233928e+02 2.177746e+03 
5.261898e+02 4.127734e+02 2.134165e+03 
5.438435e+02 -5.853070e+02 2.606948e+03 
5.332692e+02 -4.959263e+02 2.563368e+03 
5.226949e+02 -4.065457e+02 2.519787e+03 
5.121205e+02 -3.171650e+02 2.476206e+03 
5.015462e+02 -2.277843e+02 2.432626e+03 
4.909719e+02 -1.384036e+02 2.389045e+03 
4.803975e+02 -4.902295e+01 2.345464e+03 
4.698232e+02 4.035773e+01 2.301883e+03 
4.592489e+02 1.297384e+02 2.258303e+03 
4.486745e+02 2.191191e+02 2.214722e+03 
4.381002e+02 3.084998e+02 2.171141e+03 
4.275259e+02 3.978804e+02 2.127561e+03 
4.451796e+02 -6.002000e+02 2.600344e+03 
4.346052e+02 -5.108193e+02 2.556763e+03 
4.240309e+02 -4.214387e+02 2.513182e+03 
4.134566e+02 -3.320580e+02 2.469602e+03 
4.028822e+02 -2.426773e+02 2.426021e+03 
3.923079e+02 -1.532966e+02 2.382440e+03 
3.817336e+02 -6.391594e+01 2.338859e+03 
3.711593e+02 2.546474e+01 2.295279e+03 
3.605849e+02 1.148454e+02 2.251698e+03 
3.500106e+02 2.042261e+02 2.208117e+03 
3.394363e+02 2.936068e+02 2.164537e+03 
3.288619e+02 3.829875e+02 2.120956e+03 
3.465156e+02 -6.150930e+02 2.593739e+03 
3.359413e+02 -5.257123e+02 2.550158e+03 
3.253670e+02 -4.363316e+02 2.506577e+03 
3.147926e+02 -3.469510e+02 2.462997e+03 
3.042183e+02 -2.575703e+02 2.419416e+03 
2.936440e+02 -1.681896e+02 2.375835e+03 
2.830696e+02 -7.880893e+01 2.332255e+03 
2.724953e+02 1.057175e+01 2.288674e+03 
2.619210e+02 9.995243e+01 2.245093e+03 
2.513466e+02 1.893331e+02 2.201513e+03 
2.407723e+02 2.787138e+02 2.157932e+03 
2.301980e+02 3.680945e+02 2.114351e+03 
2.478517e+02 -6.299860e+02 2.587134e+03 
2.372773e+02 -5.406053e+02 2.543553e+03 
2.267030e+02 -4.512246e+02 2.499973e+03 
2.161287e+02 -3.618440e+02 2.456392e+03 
2.055543e+02 -2.724633e+02 2.412811e+03 
1.949800e+02 -1.830826e+02 2.369231e+03 
1.844057e+02 -9.370192e+01 2.325650e+03 
1.738313e+02 -4.321239e+00 2.282069e+03 
1.632570e+02 8.505944e+01 2.238489e+03 
1.526827e+02 1.744401e+02 2.194908e+03 
1.421084e+02 2.638208e+02 2.151327e+03 
1.315340e+02 3.532015e+02 2.107746e+03 
1.491877e+02 -6.448790e+02 2.580529e+03 
1.386134e+02 -5.554983e+02 2.536949e+03 
1.280390e+02 -4.661176e+02 2.493368e+03 
1.174647e+02 -3.767369e+02 2.449787e+03 
1.068904e+02 -2.873563e+02 2.406207e+03 
9.631605e+01 -1.979756e+02 2.362626e+03 
8.574172e+01 -1.085949e+02 2.319045e+03 
7.516739e+01 -1.921423e+01 2.275464e+03 
6.459306e+01 7.016645e+01 2.231884e+03 
5.401873e+01 1.595471e+02 2.188303e+03 
4.344440e+01 2.489278e+02 2.144722e+03 
3.287007e+01 3.383085e+02 2.101142e+03 
5.052375e+01 -6.597720e+02 2.573925e+03 
3.994942e+01 -5.703913e+02 2.530344e+03 
2.937509e+01 -4.810106e+02 2.486763e+03 
1.880076e+01 -3.916299e+02 2.443182e+03 
8.226429e+00 -3.022493e+02 2.399602e+03 
-2.347902e+00 -2.128686e+02 2.356021e+03 
-1.292223e+01 -1.234879e+02 2.312440e+03 
-2.349656e+01 -3.410722e+01 2.268860e+03 
-3.407090e+01 5.527346e+01 2.225279e+03 
-4.464523e+01 1.446541e+02 2.181698e+03 
-5.521956e+01 2.340348e+02 2.138118e+03 
-6.579389e+01 3.234155e+02 2.094537e+03 
-4.814020e+01 -6.746650e+02 2.567320e+03 
-5.871453e+01 -5.852843e+02 2.523739e+03 
-6.928886e+01 -4.959036e+02 2.480158e+03 
-7.986319e+01 -4.065229e+02 2.436578e+03 
-9.043753e+01 -3.171422e+02 2.392997e+03 
-1.010119e+02 -2.277616e+02 2.349416e+03 
-1.115862e+02 -1.383809e+02 2.305836e+03 
-1.221605e+02 -4.900021e+01 2.262255e+03 
-1.327349e+02 4.038047e+01 2.218674e+03 
-1.433092e+02 1.297612e+02 2.175094e+03 
-1.538835e+02 2.191418e+02 2.131513e+03 
-1.644578e+02 3.085225e+02 2.087932e+03 
-1.468042e+02 -6.895580e+02 2.560715e+03 
-1.573785e+02 -6.001773e+02 2.517134e+03 
-1.679528e+02 -5.107966e+02 2.473554e+03 
-1.785271e+02 -4.214159e+02 2.429973e+03 
-1.891015e+02 -3.320352e+02 2.386392e+03 
-1.996758e+02 -2.426546e+02 2.342812e+03 
-2.102501e+02 -1.532739e+02 2.299231e+03 
-2.208245e+02 -6.389320e+01 2.255650e+03 
-2.313988e+02 2.548748e+01 2.212069e+03 
-2.419731e+02 1.148682e+02 2.168489e+03 
-2.525475e+02 2.042488e+02 2.124908e+03 
-2.631218e+02 2.936295e+02 2.081327e+03 
-2.454681e+02 -7.044509e+02 2.554110e+03 
-2.560424e+02 -6.150703e+02 2.510530e+03 
-2.666168e+02 -5.256896e+02 2.466949e+03 
-2.771911e+02 -4.363089e+02 2.423368e+03 
-2.877654e+02 -3.469282e+02 2.379788e+03 
-2.983398e+02 -2.575475e+02 2.336207e+03 
-3.089141e+02 -1.681669e+02 2.292626e+03 
-3.194884e+02 -7.878618e+01 2.249045e+03 
-3.300628e+02 1.059449e+01 2.205465e+03 
-3.406371e+02 9.997517e+01 2.161884e+03 
-3.512114e+02 1.893559e+02 2.118303e+03 
-3.617858e+02 2.787365e+02 2.074723e+03 
