8.397340e+02 -1.222369e+02 2.746917e+03 
8.075062e+02 -6.049216e+01 2.675160e+03 
7.752785e+02 1.252541e+00 2.603404e+03 
7.430507e+02 6.299724e+01 2.531648e+03 
7.108229e+02 1.247419e+02 2.459891e+03 
6.785951e+02 1.864866e+02 2.388135e+03 
6.463673e+02 2.482314e+02 2.316379e+03 
6.141395e+02 3.099761e+02 2.244623e+03 
5.819117e+02 3.717208e+02 2.172866e+03 
5.496839e+02 4.334655e+02 2.101110e+03 
5.174561e+02 4.952102e+02 2.029354e+03 
4.852283e+02 5.569549e+02 1.957598e+03 
7.681943e+02 -1.877640e+02 2.722662e+03 
7.359665e+02 -1.260193e+02 2.650906e+03 
7.037388e+02 -6.427461e+01 2.579150e+03 
6.715110e+02 -2.529906e+00 2.507394e+03 
6.392832e+02 5.921480e+01 2.435637e+03 
6.070554e+02 1.209595e+02 2.363881e+03 
5.748276e+02 1.827042e+02 2.292125e+03 
5.425998e+02 2.444489e+02 2.220369e+03 
5.103720e+02 3.061936e+02 2.148612e+03 
4.781442e+02 3.679383e+02 2.076856e+03 
4.459164e+02 4.296830e+02 2.005100e+03 
4.136886e+02 4.914277e+02 1.933344e+03 
6.966546e+02 -2.532912e+02 2.698408e+03 
6.644268e+02 -1.915465e+02 2.626652e+03 
6.321991e+02 -1.298018e+02 2.554896e+03 
5.999713e+02 -6.805706e+01 2.483139e+03 
5.677435e+02 -6.312353e+00 2.411383e+03 
5.355157e+02 5.543235e+01 2.339627e+03 
5.032879e+02 1.171771e+02 2.267871e+03 
4.710601e+02 1.789218e+02 2.196114e+03 
4.388323e+02 2.406665e+02 2.124358e+03 
4.066045e+02 3.024112e+02 2.052602e+03 
3.743767e+02 3.641559e+02 1.980846e+03 
3.421489e+02 4.259006e+02 1.909089e+03 
6.251149e+02 -3.188183e+02 2.674154e+03 
5.928871e+02 -2.570736e+02 2.602398e+03 
5.606594e+02 -1.953289e+02 2.530642e+03 
5.284316e+02 -1.335842e+02 2.458885e+03 
4.962038e+02 -7.183950e+01 2.387129e+03 
4.639760e+02 -1.009480e+01 2.315373e+03 
4.317482e+02 5.164990e+01 2.243616e+03 
3.995204e+02 1.133946e+02 2.171860e+03 
3.672926e+02 1.751393e+02 2.100104e+03 
3.350648e+02 2.368840e+02 2.028348e+03 
3.028370e+02 2.986287e+02 1.956591e+03 
2.706092e+02 3.603734e+02 1.884835e+03 
5.535752e+02 -3.843455e+02 2.649900e+03 
5.213474e+02 -3.226008e+02 2.578144e+03 
4.891197e+02 -2.608561e+02 2.506387e+03 
4.568919e+02 -1.991114e+02 2.434631e+03 
4.246641e+02 -1.373667e+02 2.362875e+03 
3.924363e+02 -7.562195e+01 2.291119e+03 
3.602085e+02 -1.387725e+01 2.219362e+03 
3.279807e+02 4.786746e+01 2.147606e+03 
2.957529e+02 1.096122e+02 2.075850e+03 
2.635251e+02 1.713569e+02 2.004094e+03 
2.312973e+02 2.331016e+02 1.932337e+03 
1.990695e+02 2.948463e+02 1.860581e+03 
4.820355e+02 -4.498726e+02 2.625646e+03 
4.498077e+02 -3.881279e+02 2.553889e+03 
4.175800e+02 -3.263832e+02 2.482133e+03 
3.853522e+02 -2.646385e+02 2.410377e+03 
3.531244e+02 -2.028938e+02 2.338621e+03 
3.208966e+02 -1.411491e+02 2.266864e+03 
2.886688e+02 -7.940440e+01 2.195108e+03 
2.564410e+02 -1.765969e+01 2.123352e+03 
2.242132e+02 4.408501e+01 2.051596e+03 
1.919854e+02 1.058297e+02 1.979839e+03 
1.597576e+02 1.675744e+02 1.908083e+03 
1.275298e+02 2.293191e+02 1.836327e+03 
4.104958e+02 -5.153998e+02 2.601392e+03 
3.782680e+02 -4.536551e+02 2.529635e+03 
3.460403e+02 -3.919104e+02 2.457879e+03 
3.138125e+02 -3.301657e+02 2.386123e+03 
2.815847e+02 -2.684209e+02 2.314367e+03 
2.493569e+02 -2.066762e+02 2.242610e+03 
2.171291e+02 -1.449315e+02 2.170854e+03 
1.849013e+02 -8.318684e+01 2.099098e+03 
1.526735e+02 -2.144214e+01 2.027342e+03 
1.204457e+02 4.030256e+01 1.955585e+03 
8.821789e+01 1.020473e+02 1.883829e+03 
5.599009e+01 1.637920e+02 1.812073e+03 
3.389561e+02 -5.809269e+02 2.577137e+03 
3.067283e+02 -5.191822e+02 2.505381e+03 
2.745006e+02 -4.574375e+02 2.433625e+03 
2.422728e+02 -3.956928e+02 2.361869e+03 
2.100450e+02 -3.339481e+02 2.290112e+03 
1.778172e+02 -2.722034e+02 2.218356e+03 
1.455894e+02 -2.104587e+02 2.146600e+03 
1.133616e+02 -1.487140e+02 2.074844e+03 
8.113378e+01 -8.696929e+01 2.003087e+03 
4.890598e+01 -2.522459e+01 1.931331e+03 
1.667819e+01 3.652011e+01 1.859575e+03 
-1.554961e+01 9.826482e+01 1.787819e+03 
2.674164e+02 -6.464541e+02 2.552883e+03 
2.351886e+02 -5.847094e+02 2.481127e+03 
2.029609e+02 -5.229647e+02 2.409371e+03 
1.707331e+02 -4.612200e+02 2.337615e+03 
1.385053e+02 -3.994752e+02 2.265858e+03 
1.062775e+02 -3.377305e+02 2.194102e+03 
7.404967e+01 -2.759858e+02 2.122346e+03 
4.182187e+01 -2.142411e+02 2.050589e+03 
9.594078e+00 -1.524964e+02 1.978833e+03 
-2.263372e+01 -9.075174e+01 1.907077e+03 
-5.486151e+01 -2.900703e+01 1.835321e+03 
-8.708931e+01 3.273767e+01 1.763564e+03 
1.958767e+02 -7.119812e+02 2.528629e+03 
1.636489e+02 -6.502365e+02 2.456873e+03 
1.314212e+02 -5.884918e+02 2.385117e+03 
9.919336e+01 -5.267471e+02 2.313360e+03 
6.696556e+01 -4.650024e+02 2.241604e+03 
3.473777e+01 -4.032577e+02 2.169848e+03 
2.509969e+00 -3.415130e+02 2.098092e+03 
-2.971783e+01 -2.797683e+02 2.026335e+03 
-6.194562e+01 -2.180236e+02 1.954579e+03 
-9.417342e+01 -1.562789e+02 1.882823e+03 
-1.264012e+02 -9.453418e+01 1.811067e+03 
-1.586290e+02 -3.278948e+01 1.739310e+03 
1.243370e+02 -7.775084e+02 2.504375e+03 
9.210925e+01 -7.157637e+02 2.432619e+03 
5.988145e+01 -6.540190e+02 2.360862e+03 
2.765366e+01 -5.922742e+02 2.289106e+03 
-4.574139e+00 -5.305295e+02 2.217350e+03 
-3.680193e+01 -4.687848e+02 2.145594e+03 
-6.902973e+01 -4.070401e+02 2.073837e+03 
-1.012575e+02 -3.452954e+02 2.002081e+03 
-1.334853e+02 -2.835507e+02 1.930325e+03 
-1.657131e+02 -2.218060e+02 1.858569e+03 
-1.979409e+02 -1.600613e+02 1.786812e+03 
-2.301687e+02 -9.831663e+01 1.715056e+03 
5.279734e+01 -8.430355e+02 2.480121e+03 
2.056955e+01 -7.812908e+02 2.408365e+03 
-1.165825e+01 -7.195461e+02 2.336608e+03 
-4.388604e+01 -6.578014e+02 2.264852e+03 
-7.611384e+01 -5.960567e+02 2.193096e+03 
-1.083416e+02 -5.343120e+02 2.121340e+03 
-1.405694e+02 -4.725673e+02 2.049583e+03 
-1.727972e+02 -4.108226e+02 1.977827e+03 
-2.050250e+02 -3.490779e+02 1.906071e+03 
-2.372528e+02 -2.873332e+02 1.834314e+03 
-2.694806e+02 -2.255885e+02 1.762558e+03 
-3.017084e+02 -1.638438e+02 1.690802e+03 
-1.874236e+01 -9.085627e+02 2.455867e+03 
-5.097015e+01 -8.468180e+02 2.384110e+03 
-8.319795e+01 -7.850732e+02 2.312354e+03 
-1.154257e+02 -7.233285e+02 2.240598e+03 
-1.476535e+02 -6.615838e+02 2.168842e+03 
-1.798813e+02 -5.998391e+02 2.097085e+03 
-2.121091e+02 -5.380944e+02 2.025329e+03 
-2.443369e+02 -4.763497e+02 1.953573e+03 
-2.765647e+02 -4.146050e+02 1.881817e+03 
-3.087925e+02 -3.528603e+02 1.810060e+03 
-3.410203e+02 -2.911156e+02 1.738304e+03 
-3.732481e+02 -2.293709e+02 1.666548e+03 
