1.348467e+03 -3.080074e+02 2.284068e+03 
1.317489e+03 -2.133168e+02 2.275464e+03 
1.286510e+03 -1.186261e+02 2.266861e+03 
1.255532e+03 -2.393552e+01 2.258257e+03 
1.224553e+03 7.075509e+01 2.249654e+03 
1.193575e+03 1.654457e+02 2.241050e+03 
1.162596e+03 2.601363e+02 2.232447e+03 
1.131618e+03 3.548269e+02 2.223843e+03 
1.100639e+03 4.495176e+02 2.215240e+03 
1.069661e+03 5.442082e+02 2.206636e+03 
1.038682e+03 6.388988e+02 2.198033e+03 
1.007704e+03 7.335894e+02 2.189429e+03 
1.253388e+03 -3.388109e+02 2.287394e+03 
1.222409e+03 -2.441203e+02 2.278790e+03 
1.191431e+03 -1.494296e+02 2.270187e+03 
1.160452e+03 -5.473902e+01 2.261583e+03 
1.129474e+03 3.995159e+01 2.252980e+03 
1.098495e+03 1.346422e+02 2.244376e+03 
1.067517e+03 2.293328e+02 2.235773e+03 
1.036538e+03 3.240234e+02 2.227169e+03 
1.005560e+03 4.187141e+02 2.218566e+03 
9.745815e+02 5.134047e+02 2.209962e+03 
9.436030e+02 6.080953e+02 2.201359e+03 
9.126245e+02 7.027859e+02 2.192755e+03 
1.158309e+03 -3.696144e+02 2.290719e+03 
1.127330e+03 -2.749238e+02 2.282116e+03 
1.096352e+03 -1.802331e+02 2.273512e+03 
1.065373e+03 -8.554252e+01 2.264909e+03 
1.034395e+03 9.148094e+00 2.256305e+03 
1.003416e+03 1.038387e+02 2.247702e+03 
9.724376e+02 1.985293e+02 2.239098e+03 
9.414591e+02 2.932199e+02 2.230495e+03 
9.104806e+02 3.879106e+02 2.221891e+03 
8.795021e+02 4.826012e+02 2.213288e+03 
8.485236e+02 5.772918e+02 2.204684e+03 
8.175451e+02 6.719824e+02 2.196081e+03 
1.063229e+03 -4.004179e+02 2.294045e+03 
1.032251e+03 -3.057273e+02 2.285442e+03 
1.001272e+03 -2.110366e+02 2.276838e+03 
9.702938e+02 -1.163460e+02 2.268235e+03 
9.393153e+02 -2.165541e+01 2.259631e+03 
9.083368e+02 7.303521e+01 2.251028e+03 
8.773583e+02 1.677258e+02 2.242424e+03 
8.463798e+02 2.624164e+02 2.233821e+03 
8.154013e+02 3.571071e+02 2.225217e+03 
7.844228e+02 4.517977e+02 2.216614e+03 
7.534443e+02 5.464883e+02 2.208010e+03 
7.224658e+02 6.411789e+02 2.199407e+03 
9.681499e+02 -4.312214e+02 2.297371e+03 
9.371714e+02 -3.365308e+02 2.288767e+03 
9.061929e+02 -2.418401e+02 2.280164e+03 
8.752144e+02 -1.471495e+02 2.271560e+03 
8.442359e+02 -5.245890e+01 2.262957e+03 
8.132574e+02 4.223171e+01 2.254354e+03 
7.822789e+02 1.369223e+02 2.245750e+03 
7.513004e+02 2.316129e+02 2.237147e+03 
7.203219e+02 3.263036e+02 2.228543e+03 
6.893434e+02 4.209942e+02 2.219940e+03 
6.583649e+02 5.156848e+02 2.211336e+03 
6.273864e+02 6.103754e+02 2.202733e+03 
8.730706e+02 -4.620249e+02 2.300697e+03 
8.420921e+02 -3.673342e+02 2.292093e+03 
8.111136e+02 -2.726436e+02 2.283490e+03 
7.801351e+02 -1.779530e+02 2.274886e+03 
7.491566e+02 -8.326240e+01 2.266283e+03 
7.181781e+02 1.142821e+01 2.257679e+03 
6.871996e+02 1.061188e+02 2.249076e+03 
6.562211e+02 2.008094e+02 2.240472e+03 
6.252426e+02 2.955001e+02 2.231869e+03 
5.942641e+02 3.901907e+02 2.223265e+03 
5.632856e+02 4.848813e+02 2.214662e+03 
5.323071e+02 5.795719e+02 2.206058e+03 
7.779912e+02 -4.928284e+02 2.304023e+03 
7.470127e+02 -3.981377e+02 2.295419e+03 
7.160342e+02 -3.034471e+02 2.286816e+03 
6.850557e+02 -2.087565e+02 2.278212e+03 
6.540772e+02 -1.140659e+02 2.269609e+03 
6.230987e+02 -1.937529e+01 2.261005e+03 
5.921202e+02 7.531533e+01 2.252402e+03 
5.611417e+02 1.700059e+02 2.243798e+03 
5.301632e+02 2.646966e+02 2.235195e+03 
4.991847e+02 3.593872e+02 2.226591e+03 
4.682062e+02 4.540778e+02 2.217988e+03 
4.372277e+02 5.487684e+02 2.209384e+03 
6.829119e+02 -5.236319e+02 2.307348e+03 
6.519334e+02 -4.289412e+02 2.298745e+03 
6.209549e+02 -3.342506e+02 2.290141e+03 
5.899764e+02 -2.395600e+02 2.281538e+03 
5.589979e+02 -1.448694e+02 2.272934e+03 
5.280194e+02 -5.017879e+01 2.264331e+03 
4.970409e+02 4.451183e+01 2.255727e+03 
4.660624e+02 1.392024e+02 2.247124e+03 
4.350839e+02 2.338931e+02 2.238520e+03 
4.041054e+02 3.285837e+02 2.229917e+03 
3.731269e+02 4.232743e+02 2.221314e+03 
3.421484e+02 5.179649e+02 2.212710e+03 
5.878325e+02 -5.544354e+02 2.310674e+03 
5.568540e+02 -4.597447e+02 2.302071e+03 
5.258755e+02 -3.650541e+02 2.293467e+03 
4.948970e+02 -2.703635e+02 2.284864e+03 
4.639185e+02 -1.756729e+02 2.276260e+03 
4.329400e+02 -8.098229e+01 2.267657e+03 
4.019615e+02 1.370833e+01 2.259053e+03 
3.709830e+02 1.083989e+02 2.250450e+03 
3.400045e+02 2.030896e+02 2.241846e+03 
3.090260e+02 2.977802e+02 2.233243e+03 
2.780475e+02 3.924708e+02 2.224639e+03 
2.470690e+02 4.871614e+02 2.216036e+03 
4.927532e+02 -5.852389e+02 2.314000e+03 
4.617747e+02 -4.905482e+02 2.305396e+03 
4.307962e+02 -3.958576e+02 2.296793e+03 
3.998177e+02 -3.011670e+02 2.288189e+03 
3.688392e+02 -2.064764e+02 2.279586e+03 
3.378607e+02 -1.117858e+02 2.270983e+03 
3.068822e+02 -1.709517e+01 2.262379e+03 
2.759037e+02 7.759544e+01 2.253776e+03 
2.449252e+02 1.722861e+02 2.245172e+03 
2.139467e+02 2.669767e+02 2.236569e+03 
1.829682e+02 3.616673e+02 2.227965e+03 
1.519897e+02 4.563579e+02 2.219362e+03 
3.976738e+02 -6.160424e+02 2.317326e+03 
3.666953e+02 -5.213517e+02 2.308722e+03 
3.357168e+02 -4.266611e+02 2.300119e+03 
3.047383e+02 -3.319705e+02 2.291515e+03 
2.737598e+02 -2.372799e+02 2.282912e+03 
2.427813e+02 -1.425893e+02 2.274308e+03 
2.118028e+02 -4.789867e+01 2.265705e+03 
1.808243e+02 4.679194e+01 2.257101e+03 
1.498458e+02 1.414826e+02 2.248498e+03 
1.188673e+02 2.361732e+02 2.239894e+03 
8.788881e+01 3.308638e+02 2.231291e+03 
5.691031e+01 4.255544e+02 2.222687e+03 
3.025945e+02 -6.468459e+02 2.320652e+03 
2.716160e+02 -5.521552e+02 2.312048e+03 
2.406375e+02 -4.574646e+02 2.303445e+03 
2.096590e+02 -3.627740e+02 2.294841e+03 
1.786805e+02 -2.680834e+02 2.286238e+03 
1.477020e+02 -1.733928e+02 2.277634e+03 
1.167235e+02 -7.870217e+01 2.269031e+03 
8.574496e+01 1.598844e+01 2.260427e+03 
5.476646e+01 1.106791e+02 2.251824e+03 
2.378796e+01 2.053697e+02 2.243220e+03 
-7.190542e+00 3.000603e+02 2.234617e+03 
-3.816904e+01 3.947509e+02 2.226013e+03 
2.075151e+02 -6.776494e+02 2.323977e+03 
1.765366e+02 -5.829587e+02 2.315374e+03 
1.455581e+02 -4.882681e+02 2.306770e+03 
1.145796e+02 -3.935775e+02 2.298167e+03 
8.360111e+01 -2.988869e+02 2.289563e+03 
5.262261e+01 -2.041963e+02 2.280960e+03 
2.164411e+01 -1.095057e+02 2.272356e+03 
-9.334393e+00 -1.481506e+01 2.263753e+03 
-4.031289e+01 7.987556e+01 2.255150e+03 
-7.129139e+01 1.745662e+02 2.246546e+03 
-1.022699e+02 2.692568e+02 2.237943e+03 
-1.332484e+02 3.639474e+02 2.229339e+03 
